5.4000000e-02   5.4000000e-02   5.4000000e-02   5.4000000e-02   5.4000000e-02   5.4000000e-02   5.4000000e-02   5.4000000e-02   5.4000000e-02   5.4000000e-02   5.4000000e-02   5.4000000e-02   5.4000000e-02   5.4000000e-02   5.4000000e-02   5.4000000e-02   5.4000000e-02   5.2950678e-02   5.1149587e-02   4.9513059e-02   4.8218035e-02   4.7405401e-02   4.7154005e-02   4.7463675e-02   4.8251514e-02   4.9363199e-02   5.0597849e-02   5.1741992e-02   5.2606102e-02   5.3056505e-02   5.3036545e-02   5.2573269e-02   5.1769066e-02   5.0780818e-02   4.9791427e-02   4.8979660e-02   4.8493890e-02   4.8433831e-02   4.8842254e-02   4.9706425e-02   5.0967277e-02   5.2533302e-02   5.4000000e-02   5.4000000e-02   5.4000000e-02   5.4000000e-02   5.4000000e-02   5.4000000e-02   5.4000000e-02   5.4000000e-02   5.4000000e-02   5.4000000e-02   5.4000000e-02   5.4000000e-02   5.4000000e-02   5.4000000e-02   5.4000000e-02   5.4000000e-02   5.4000000e-02   5.4000000e-02   5.4000000e-02   5.4000000e-02   5.4000000e-02   5.4000000e-02   5.4000000e-02   5.4000000e-02   5.4000000e-02   5.3787439e-02   5.1676672e-02   4.9686210e-02   4.7982157e-02   4.6718252e-02   4.6009501e-02   4.5909310e-02   4.6395164e-02   4.7366536e-02   4.8656400e-02   5.0054810e-02   5.1340389e-02   5.2313726e-02   5.2826264e-02   5.2799285e-02   5.2229840e-02   5.1183334e-02   4.9775291e-02   4.8146802e-02   4.6439034e-02   4.4771736e-02   4.3229241e-02   4.1856160e-02   4.0657683e-02   3.9614157e-02   3.8690446e-02   3.7849882e-02   3.7064884e-02   3.6323580e-02   3.5631960e-02   3.5011990e-02   3.4496786e-02   3.4124231e-02   3.3930417e-02   3.3942946e-02   3.4180023e-02   3.4644665e-02   3.5326634e-02   3.6203438e-02   3.7242901e-02   3.8445943e-02   3.9675016e-02   4.0951218e-02   4.2233228e-02   4.3485870e-02   4.4681780e-02   4.5802772e-02   4.6840925e-02   4.7799368e-02   4.8692613e-02   4.9546210e-02   5.0395425e-02   5.1282660e-02   5.2253468e-02   5.3351204e-02   5.4000000e-02   5.4000000e-02   5.4000000e-02   5.4000000e-02   5.4000000e-02   5.4000000e-02   5.4000000e-02   5.4000000e-02   5.4000000e-02   5.4000000e-02   5.4000000e-02   5.4000000e-02   5.4000000e-02   5.4000000e-02   5.4000000e-02   5.4000000e-02   5.4000000e-02   5.4000000e-02   5.4000000e-02   5.4000000e-02   5.4000000e-02   5.4000000e-02   5.4000000e-02   5.4000000e-02   5.4000000e-02   5.4000000e-02   5.4000000e-02   5.4000000e-02   5.4000000e-02   5.4000000e-02   5.4000000e-02   5.4000000e-02   5.4000000e-02   5.4000000e-02   5.4000000e-02   5.4000000e-02   5.4000000e-02   5.4000000e-02   5.4000000e-02   5.4000000e-02   5.3172720e-02   5.1171289e-02   4.8836385e-02   4.6262870e-02   4.3580837e-02   4.0946977e-02   3.8531403e-02   3.6501154e-02   3.5002280e-02   3.4142827e-02   3.3979128e-02   3.4507525e-02   3.5662958e-02   3.7324910e-02   3.9330161e-02   4.1490742e-02   4.3614718e-02   4.5527031e-02   4.7087606e-02   4.8204432e-02   4.8840119e-02   4.9011432e-02   4.8782357e-02   4.8252135e-02
5.4000000e-02   5.4000000e-02   5.4000000e-02   5.4000000e-02   5.4000000e-02   5.4000000e-02   5.4000000e-02   5.4000000e-02   5.4000000e-02   5.4000000e-02   5.4000000e-02   5.4000000e-02   5.4000000e-02   5.4000000e-02   5.4000000e-02   5.4000000e-02   5.4000000e-02   5.4000000e-02   5.2398911e-02   5.0726255e-02   4.9369472e-02   4.8474260e-02   4.8124955e-02   4.8326710e-02   4.9001115e-02   4.9997109e-02   5.1115830e-02   5.2144903e-02   5.2895533e-02   5.3235039e-02   5.3108545e-02   5.2545945e-02   5.1653515e-02   5.0592723e-02   4.9551200e-02   4.8711931e-02   4.8226388e-02   4.8195817e-02   4.8662734e-02   4.9612369e-02   5.0982067e-02   5.2675527e-02   5.4000000e-02   5.4000000e-02   5.4000000e-02   5.4000000e-02   5.4000000e-02   5.4000000e-02   5.4000000e-02   5.4000000e-02   5.4000000e-02   5.4000000e-02   5.4000000e-02   5.4000000e-02   5.4000000e-02   5.4000000e-02   5.4000000e-02   5.4000000e-02   5.4000000e-02   5.4000000e-02   5.4000000e-02   5.4000000e-02   5.4000000e-02   5.4000000e-02   5.4000000e-02   5.4000000e-02   5.4000000e-02   5.4000000e-02   5.3107592e-02   5.1008242e-02   4.9172799e-02   4.7763168e-02   4.6903339e-02   4.6654896e-02   4.7001238e-02   4.7844552e-02   4.9017090e-02   5.0305317e-02   5.1482610e-02   5.2344240e-02   5.2737841e-02   5.2583608e-02   5.1880808e-02   5.0700205e-02   4.9164980e-02   4.7424869e-02   4.5629186e-02   4.3903986e-02   4.2337088e-02   4.0973665e-02   3.9815154e-02   3.8836793e-02   3.7996074e-02   3.7248185e-02   3.6557592e-02   3.5905487e-02   3.5292527e-02   3.4737282e-02   3.4271492e-02   3.3933546e-02   3.3761604e-02   3.3787477e-02   3.4031658e-02   3.4501760e-02   3.5191085e-02   3.6079862e-02   3.7137517e-02   3.8368390e-02   3.9626372e-02   4.0935255e-02   4.2250249e-02   4.3532053e-02   4.4748861e-02   4.5878113e-02   4.6908006e-02   4.7838708e-02   4.8683131e-02   4.9466974e-02   5.0227717e-02   5.1012198e-02   5.1872555e-02   5.2860538e-02   5.4000000e-02   5.4000000e-02   5.4000000e-02   5.4000000e-02   5.4000000e-02   5.4000000e-02   5.4000000e-02   5.4000000e-02   5.4000000e-02   5.4000000e-02   5.4000000e-02   5.4000000e-02   5.4000000e-02   5.4000000e-02   5.4000000e-02   5.4000000e-02   5.4000000e-02   5.4000000e-02   5.4000000e-02   5.4000000e-02   5.4000000e-02   5.4000000e-02   5.4000000e-02   5.4000000e-02   5.4000000e-02   5.4000000e-02   5.4000000e-02   5.4000000e-02   5.4000000e-02   5.4000000e-02   5.4000000e-02   5.4000000e-02   5.4000000e-02   5.4000000e-02   5.4000000e-02   5.4000000e-02   5.4000000e-02   5.4000000e-02   5.4000000e-02   5.4000000e-02   5.4000000e-02   5.2616627e-02   5.0539966e-02   4.8220058e-02   4.5774188e-02   4.3346159e-02   4.1094282e-02   3.9176008e-02   3.7730938e-02   3.6864423e-02   3.6634083e-02   3.7041331e-02   3.8029401e-02   3.9488447e-02   4.1267267e-02   4.3190190e-02   4.5076883e-02   4.6762359e-02   4.8114518e-02   4.9046902e-02   4.9525198e-02   4.9566939e-02   4.9234922e-02   4.8625700e-02
5.4000000e-02   5.4000000e-02   5.4000000e-02   5.4000000e-02   5.4000000e-02   5.4000000e-02   5.4000000e-02   5.4000000e-02   5.4000000e-02   5.4000000e-02   5.4000000e-02   5.4000000e-02   5.4000000e-02   5.4000000e-02   5.4000000e-02   5.4000000e-02   5.4000000e-02   5.4000000e-02   5.3515386e-02   5.1836248e-02   5.0445961e-02   4.9492193e-02   4.9062696e-02   4.9167035e-02   4.9731688e-02   5.0610483e-02   5.1609088e-02   5.2519109e-02   5.3154976e-02   5.3387108e-02   5.3163058e-02   5.2515037e-02   5.1551516e-02   5.0436047e-02   4.9358145e-02   4.8502339e-02   4.8021140e-02   4.8016199e-02   4.8529706e-02   4.9545831e-02   5.1000173e-02   5.2794116e-02   5.4000000e-02   5.4000000e-02   5.4000000e-02   5.4000000e-02   5.4000000e-02   5.4000000e-02   5.4000000e-02   5.4000000e-02   5.4000000e-02   5.4000000e-02   5.4000000e-02   5.4000000e-02   5.4000000e-02   5.4000000e-02   5.4000000e-02   5.4000000e-02   5.4000000e-02   5.4000000e-02   5.4000000e-02   5.4000000e-02   5.4000000e-02   5.4000000e-02   5.4000000e-02   5.4000000e-02   5.4000000e-02   5.4000000e-02   5.4000000e-02   5.2550588e-02   5.0583427e-02   4.9031245e-02   4.8024249e-02   4.7629800e-02   4.7835636e-02   4.8546165e-02   4.9593561e-02   5.0762277e-02   5.1822589e-02   5.2566698e-02   5.2840325e-02   5.2563781e-02   5.1738872e-02   5.0441177e-02   4.8800306e-02   4.6973017e-02   4.5115096e-02   4.3357470e-02   4.1790465e-02   4.0459507e-02   3.9362078e-02   3.8468928e-02   3.7730818e-02   3.7095404e-02   3.6519604e-02   3.5977721e-02   3.5464713e-02   3.4994969e-02   3.4597714e-02   3.4310463e-02   3.4171979e-02   3.4217491e-02   3.4467750e-02   3.4934572e-02   3.5614494e-02   3.6490675e-02   3.7534843e-02   3.8755250e-02   4.0000256e-02   4.1296926e-02   4.2598630e-02   4.3863339e-02   4.5055803e-02   4.6149553e-02   4.7128760e-02   4.7989888e-02   4.8742979e-02   4.9412271e-02   5.0035741e-02   5.0663134e-02   5.1352142e-02   5.2162629e-02   5.3149155e-02   5.4000000e-02   5.4000000e-02   5.4000000e-02   5.4000000e-02   5.4000000e-02   5.4000000e-02   5.4000000e-02   5.4000000e-02   5.4000000e-02   5.4000000e-02   5.4000000e-02   5.4000000e-02   5.4000000e-02   5.4000000e-02   5.4000000e-02   5.4000000e-02   5.4000000e-02   5.4000000e-02   5.4000000e-02   5.4000000e-02   5.4000000e-02   5.4000000e-02   5.4000000e-02   5.4000000e-02   5.4000000e-02   5.4000000e-02   5.4000000e-02   5.4000000e-02   5.4000000e-02   5.4000000e-02   5.4000000e-02   5.4000000e-02   5.4000000e-02   5.4000000e-02   5.4000000e-02   5.4000000e-02   5.4000000e-02   5.4000000e-02   5.4000000e-02   5.4000000e-02   5.3984367e-02   5.2177018e-02   5.0126558e-02   4.7936846e-02   4.5737640e-02   4.3673816e-02   4.1891275e-02   4.0521102e-02   3.9664052e-02   3.9377558e-02   3.9667298e-02   4.0484793e-02   4.1731693e-02   4.3270372e-02   4.4939552e-02   4.6572827e-02   4.8017543e-02   4.9151458e-02   4.9894948e-02   5.0217316e-02   5.0136644e-02   4.9713634e-02   4.9040744e-02
5.4000000e-02   5.4000000e-02   5.4000000e-02   5.4000000e-02   5.4000000e-02   5.4000000e-02   5.4000000e-02   5.4000000e-02   5.4000000e-02   5.4000000e-02   5.4000000e-02   5.4000000e-02   5.4000000e-02   5.4000000e-02   5.4000000e-02   5.4000000e-02   5.4000000e-02   5.4000000e-02   5.4000000e-02   5.2797827e-02   5.1402657e-02   5.0415319e-02   4.9924813e-02   4.9944101e-02   5.0404874e-02   5.1167421e-02   5.2044419e-02   5.2834293e-02   5.3357395e-02   5.3488935e-02   5.3179586e-02   5.2463207e-02   5.1448630e-02   5.0298829e-02   4.9202231e-02   4.8342144e-02   4.7870018e-02   4.7886755e-02   4.8434131e-02   4.9496130e-02   5.1008218e-02   5.2871476e-02   5.4000000e-02   5.4000000e-02   5.4000000e-02   5.4000000e-02   5.4000000e-02   5.4000000e-02   5.4000000e-02   5.4000000e-02   5.4000000e-02   5.4000000e-02   5.4000000e-02   5.4000000e-02   5.4000000e-02   5.4000000e-02   5.4000000e-02   5.4000000e-02   5.4000000e-02   5.4000000e-02   5.4000000e-02   5.4000000e-02   5.4000000e-02   5.4000000e-02   5.4000000e-02   5.4000000e-02   5.4000000e-02   5.4000000e-02   5.4000000e-02   5.3909236e-02   5.1866610e-02   5.0222606e-02   4.9111332e-02   4.8604631e-02   4.8694599e-02   4.9289286e-02   5.0223466e-02   5.1283161e-02   5.2239497e-02   5.2885339e-02   5.3067469e-02   5.2708115e-02   5.1812077e-02   5.0458886e-02   4.8782648e-02   4.6944528e-02   4.5103899e-02   4.3393793e-02   4.1904680e-02   4.0680554e-02   3.9713356e-02   3.8968741e-02   3.8390215e-02   3.7917505e-02   3.7499556e-02   3.7103242e-02   3.6717127e-02   3.6350611e-02   3.6029563e-02   3.5789863e-02   3.5670309e-02   3.5710057e-02   3.5929184e-02   3.6344828e-02   3.6957890e-02   3.7756029e-02   3.8715218e-02   3.9849021e-02   4.1004474e-02   4.2212888e-02   4.3427816e-02   4.4606084e-02   4.5709990e-02   4.6709460e-02   4.7584201e-02   4.8325821e-02   4.8939748e-02   4.9446607e-02   4.9882589e-02   5.0298247e-02   5.0755243e-02   5.1320785e-02   5.2059888e-02   5.3026119e-02   5.4000000e-02   5.4000000e-02   5.4000000e-02   5.4000000e-02   5.4000000e-02   5.4000000e-02   5.4000000e-02   5.4000000e-02   5.4000000e-02   5.4000000e-02   5.4000000e-02   5.4000000e-02   5.4000000e-02   5.4000000e-02   5.4000000e-02   5.4000000e-02   5.4000000e-02   5.4000000e-02   5.4000000e-02   5.4000000e-02   5.4000000e-02   5.4000000e-02   5.4000000e-02   5.4000000e-02   5.4000000e-02   5.4000000e-02   5.4000000e-02   5.4000000e-02   5.4000000e-02   5.4000000e-02   5.4000000e-02   5.4000000e-02   5.4000000e-02   5.4000000e-02   5.4000000e-02   5.4000000e-02   5.4000000e-02   5.4000000e-02   5.4000000e-02   5.4000000e-02   5.3633763e-02   5.1851820e-02   4.9921816e-02   4.7959081e-02   4.6094240e-02   4.4460476e-02   4.3178989e-02   4.2344555e-02   4.2013227e-02   4.2194139e-02   4.2846807e-02   4.3884640e-02   4.5184386e-02   4.6600341e-02   4.7981410e-02   4.9188631e-02   5.0110722e-02   5.0675578e-02   5.0856273e-02   5.0671038e-02   5.0177606e-02   4.9463095e-02
5.4000000e-02   5.4000000e-02   5.4000000e-02   5.4000000e-02   5.4000000e-02   5.4000000e-02   5.4000000e-02   5.4000000e-02   5.4000000e-02   5.4000000e-02   5.4000000e-02   5.4000000e-02   5.4000000e-02   5.4000000e-02   5.4000000e-02   5.4000000e-02   5.4000000e-02   5.4000000e-02   5.4000000e-02   5.3589321e-02   5.2217796e-02   5.1222396e-02   5.0691168e-02   5.0639383e-02   5.1004147e-02   5.1653625e-02   5.2409795e-02   5.3080561e-02   5.3494599e-02   5.3533590e-02   5.3151817e-02   5.2384010e-02   5.1337432e-02   5.0171775e-02   4.9071373e-02   4.8215551e-02   4.7752628e-02   4.7781690e-02   4.8344151e-02   4.9424920e-02   5.0961278e-02   5.2856507e-02   5.4000000e-02   5.4000000e-02   5.4000000e-02   5.4000000e-02   5.4000000e-02   5.4000000e-02   5.4000000e-02   5.4000000e-02   5.4000000e-02   5.4000000e-02   5.4000000e-02   5.4000000e-02   5.4000000e-02   5.4000000e-02   5.4000000e-02   5.4000000e-02   5.4000000e-02   5.4000000e-02   5.4000000e-02   5.4000000e-02   5.4000000e-02   5.4000000e-02   5.4000000e-02   5.4000000e-02   5.4000000e-02   5.4000000e-02   5.4000000e-02   5.4000000e-02   5.3046931e-02   5.1340073e-02   5.0150039e-02   4.9550983e-02   4.9538287e-02   5.0023856e-02   5.0846500e-02   5.1796132e-02   5.2647449e-02   5.3196504e-02   5.3292943e-02   5.2861630e-02   5.1909853e-02   5.0519514e-02   4.8826886e-02   4.6994947e-02   4.5184302e-02   4.3528402e-02   4.2117123e-02   4.0993491e-02   4.0144766e-02   3.9533688e-02   3.9098830e-02   3.8774334e-02   3.8503220e-02   3.8246447e-02   3.7987021e-02   3.7729467e-02   3.7495733e-02   3.7318943e-02   3.7236417e-02   3.7290434e-02   3.7497409e-02   3.7878867e-02   3.8438906e-02   3.9168934e-02   4.0048871e-02   4.1096846e-02   4.2161241e-02   4.3276973e-02   4.4398718e-02   4.5483017e-02   4.6490330e-02   4.7387202e-02   4.8148615e-02   4.8760533e-02   4.9222497e-02   4.9549894e-02   4.9775362e-02   4.9948622e-02   5.0134094e-02   5.0405828e-02   5.0839718e-02   5.1503547e-02   5.2446035e-02   5.3686587e-02   5.4000000e-02   5.4000000e-02   5.4000000e-02   5.4000000e-02   5.4000000e-02   5.4000000e-02   5.4000000e-02   5.4000000e-02   5.4000000e-02   5.4000000e-02   5.4000000e-02   5.4000000e-02   5.4000000e-02   5.4000000e-02   5.4000000e-02   5.4000000e-02   5.4000000e-02   5.4000000e-02   5.4000000e-02   5.4000000e-02   5.4000000e-02   5.3998566e-02   5.4000000e-02   5.4000000e-02   5.4000000e-02   5.4000000e-02   5.4000000e-02   5.4000000e-02   5.4000000e-02   5.4000000e-02   5.4000000e-02   5.4000000e-02   5.4000000e-02   5.4000000e-02   5.4000000e-02   5.4000000e-02   5.4000000e-02   5.4000000e-02   5.4000000e-02   5.3291098e-02   5.1608821e-02   4.9875220e-02   4.8206611e-02   4.6723054e-02   4.5535186e-02   4.4730969e-02   4.4364244e-02   4.4446890e-02   4.4945965e-02   4.5786498e-02   4.6859778e-02   4.8036102e-02   4.9180249e-02   5.0167493e-02   5.0897919e-02   5.1307060e-02   5.1371538e-02   5.1109157e-02   5.0573781e-02   4.9846085e-02
5.4000000e-02   5.4000000e-02   5.4000000e-02   5.4000000e-02   5.4000000e-02   5.4000000e-02   5.4000000e-02   5.4000000e-02   5.4000000e-02   5.4000000e-02   5.4000000e-02   5.4000000e-02   5.4000000e-02   5.4000000e-02   5.4000000e-02   5.4000000e-02   5.4000000e-02   5.4000000e-02   5.4000000e-02   5.4000000e-02   5.2871293e-02   5.1891144e-02   5.1338254e-02   5.1229169e-02   5.1506537e-02   5.2047618e-02   5.2685700e-02   5.3240489e-02   5.3551048e-02   5.3506929e-02   5.3066301e-02   5.2263877e-02   5.1203419e-02   5.0038693e-02   4.8947066e-02   4.8101265e-02   4.7644556e-02   4.7673271e-02   4.8228610e-02   4.9297588e-02   5.0821316e-02   5.2707835e-02   5.4000000e-02   5.4000000e-02   5.4000000e-02   5.4000000e-02   5.4000000e-02   5.4000000e-02   5.4000000e-02   5.4000000e-02   5.4000000e-02   5.4000000e-02   5.4000000e-02   5.4000000e-02   5.4000000e-02   5.4000000e-02   5.4000000e-02   5.4000000e-02   5.4000000e-02   5.4000000e-02   5.4000000e-02   5.4000000e-02   5.4000000e-02   5.4000000e-02   5.4000000e-02   5.4000000e-02   5.4000000e-02   5.4000000e-02   5.4000000e-02   5.4000000e-02   5.4000000e-02   5.2327864e-02   5.1084099e-02   5.0413212e-02   5.0312921e-02   5.0699396e-02   5.1417176e-02   5.2262717e-02   5.3017349e-02   5.3483177e-02   5.3514789e-02   5.3040576e-02   5.2069855e-02   5.0685178e-02   4.9022359e-02   4.7243116e-02   4.5506296e-02   4.3943309e-02   4.2641812e-02   4.1643393e-02   4.0930429e-02   4.0463990e-02   4.0179103e-02   4.0005848e-02   3.9882715e-02   3.9765813e-02   3.9633215e-02   3.9484735e-02   3.9338155e-02   3.9223285e-02   3.9175232e-02   3.9239639e-02   3.9427154e-02   3.9763892e-02   4.0257028e-02   4.0901917e-02   4.1682953e-02   4.2622696e-02   4.3574172e-02   4.4575521e-02   4.5583685e-02   4.6555863e-02   4.7451293e-02   4.8233310e-02   4.8871806e-02   4.9346191e-02   4.9648696e-02   4.9787664e-02   4.9790175e-02   4.9703180e-02   4.9592263e-02   4.9537333e-02   4.9625010e-02   4.9938081e-02   5.0543212e-02   5.1478717e-02   5.2744637e-02   5.4000000e-02   5.4000000e-02   5.4000000e-02   5.4000000e-02   5.4000000e-02   5.4000000e-02   5.4000000e-02   5.4000000e-02   5.4000000e-02   5.4000000e-02   5.4000000e-02   5.4000000e-02   5.4000000e-02   5.4000000e-02   5.4000000e-02   5.4000000e-02   5.4000000e-02   5.3894041e-02   5.3544478e-02   5.3408754e-02   5.3454895e-02   5.3648650e-02   5.3958141e-02   5.4000000e-02   5.4000000e-02   5.4000000e-02   5.4000000e-02   5.4000000e-02   5.4000000e-02   5.4000000e-02   5.4000000e-02   5.4000000e-02   5.4000000e-02   5.4000000e-02   5.4000000e-02   5.4000000e-02   5.4000000e-02   5.4000000e-02   5.4000000e-02   5.2909712e-02   5.1384094e-02   4.9895766e-02   4.8551944e-02   4.7452682e-02   4.6678865e-02   4.6281688e-02   4.6275285e-02   4.6633777e-02   4.7293431e-02   4.8159815e-02   4.9119069e-02   5.0051740e-02   5.0847231e-02   5.1416774e-02   5.1703172e-02   5.1686023e-02   5.1381929e-02   5.0839951e-02   5.0133287e-02
5.4000000e-02   5.4000000e-02   5.4000000e-02   5.4000000e-02   5.4000000e-02   5.4000000e-02   5.4000000e-02   5.4000000e-02   5.4000000e-02   5.4000000e-02   5.4000000e-02   5.4000000e-02   5.4000000e-02   5.4000000e-02   5.4000000e-02   5.4000000e-02   5.4000000e-02   5.4000000e-02   5.4000000e-02   5.4000000e-02   5.3326771e-02   5.2378652e-02   5.1818185e-02   5.1662424e-02   5.1859733e-02   5.2297519e-02   5.2822041e-02   5.3266663e-02   5.3482391e-02   5.3367590e-02   5.2884234e-02   5.2065917e-02   5.1010901e-02   4.9864448e-02   4.8794227e-02   4.7963931e-02   4.7510024e-02   4.7525267e-02   4.8050870e-02   4.9077149e-02   5.0551033e-02   5.2387846e-02   5.4000000e-02   5.4000000e-02   5.4000000e-02   5.4000000e-02   5.4000000e-02   5.4000000e-02   5.4000000e-02   5.4000000e-02   5.4000000e-02   5.4000000e-02   5.4000000e-02   5.4000000e-02   5.4000000e-02   5.4000000e-02   5.4000000e-02   5.4000000e-02   5.4000000e-02   5.4000000e-02   5.4000000e-02   5.4000000e-02   5.4000000e-02   5.4000000e-02   5.4000000e-02   5.4000000e-02   5.4000000e-02   5.4000000e-02   5.4000000e-02   5.4000000e-02   5.4000000e-02   5.3162848e-02   5.1889960e-02   5.1168098e-02   5.0996262e-02   5.1295134e-02   5.1916487e-02   5.2665768e-02   5.3333807e-02   5.3731442e-02   5.3720134e-02   5.3232570e-02   5.2279548e-02   5.0942509e-02   4.9354144e-02   4.7671829e-02   4.6049660e-02   4.4614548e-02   4.3450322e-02   4.2596691e-02   4.2030933e-02   4.1713763e-02   4.1578133e-02   4.1551698e-02   4.1569965e-02   4.1585454e-02   4.1572167e-02   4.1525638e-02   4.1459525e-02   4.1400055e-02   4.1379658e-02   4.1447876e-02   4.1607583e-02   4.1889833e-02   4.2304787e-02   4.2851903e-02   4.3520459e-02   4.4337140e-02   4.5162703e-02   4.6037925e-02   4.6922965e-02   4.7776489e-02   4.8557064e-02   4.9224990e-02   4.9744808e-02   5.0088620e-02   5.0240127e-02   5.0199014e-02   4.9984959e-02   4.9640262e-02   4.9229994e-02   4.8838688e-02   4.8563086e-02   4.8501130e-02   4.8738337e-02   4.9333495e-02   5.0306223e-02   5.1629000e-02   5.3225804e-02   5.4000000e-02   5.4000000e-02   5.4000000e-02   5.4000000e-02   5.4000000e-02   5.4000000e-02   5.4000000e-02   5.4000000e-02   5.4000000e-02   5.4000000e-02   5.4000000e-02   5.4000000e-02   5.4000000e-02   5.4000000e-02   5.3362360e-02   5.2908750e-02   5.2689176e-02   5.2676907e-02   5.2836276e-02   5.3129747e-02   5.3523042e-02   5.3987937e-02   5.4000000e-02   5.4000000e-02   5.4000000e-02   5.4000000e-02   5.4000000e-02   5.4000000e-02   5.4000000e-02   5.4000000e-02   5.4000000e-02   5.4000000e-02   5.4000000e-02   5.4000000e-02   5.4000000e-02   5.4000000e-02   5.4000000e-02   5.3770567e-02   5.2419964e-02   5.1084133e-02   4.9858302e-02   4.8832515e-02   4.8080853e-02   4.7651872e-02   4.7561744e-02   4.7791287e-02   4.8287533e-02   4.8969800e-02   4.9739507e-02   5.0492386e-02   5.1131325e-02   5.1578008e-02   5.1781722e-02   5.1724164e-02   5.1419780e-02   5.0911832e-02   5.0265057e-02
5.4000000e-02   5.4000000e-02   5.4000000e-02   5.4000000e-02   5.4000000e-02   5.4000000e-02   5.4000000e-02   5.4000000e-02   5.4000000e-02   5.4000000e-02   5.4000000e-02   5.4000000e-02   5.4000000e-02   5.4000000e-02   5.4000000e-02   5.4000000e-02   5.4000000e-02   5.4000000e-02   5.4000000e-02   5.4000000e-02   5.3524706e-02   5.2614321e-02   5.2051459e-02   5.1853403e-02   5.1974608e-02   5.2313573e-02   5.2730807e-02   5.3074625e-02   5.3208883e-02   5.3041077e-02   5.2536389e-02   5.1725850e-02   5.0700058e-02   4.9593190e-02   4.8560598e-02   4.7754671e-02   4.7303468e-02   4.7295465e-02   4.7772125e-02   4.8728210e-02   5.0118351e-02   5.1867550e-02   5.3883100e-02   5.4000000e-02   5.4000000e-02   5.4000000e-02   5.4000000e-02   5.4000000e-02   5.4000000e-02   5.4000000e-02   5.4000000e-02   5.4000000e-02   5.4000000e-02   5.4000000e-02   5.4000000e-02   5.4000000e-02   5.4000000e-02   5.4000000e-02   5.4000000e-02   5.4000000e-02   5.4000000e-02   5.4000000e-02   5.4000000e-02   5.4000000e-02   5.4000000e-02   5.4000000e-02   5.4000000e-02   5.4000000e-02   5.4000000e-02   5.4000000e-02   5.4000000e-02   5.3823026e-02   5.2542429e-02   5.1788379e-02   5.1560110e-02   5.1782956e-02   5.2317199e-02   5.2979409e-02   5.3572439e-02   5.3918200e-02   5.3886671e-02   5.3415416e-02   5.2516069e-02   5.1267187e-02   4.9795749e-02   4.8251823e-02   4.6781882e-02   4.5505986e-02   4.4502602e-02   4.3809151e-02   4.3397538e-02   4.3229460e-02   4.3237232e-02   4.3347730e-02   4.3495074e-02   4.3629562e-02   4.3722154e-02   4.3764757e-02   4.3767199e-02   4.3752136e-02   4.3749117e-02   4.3812354e-02   4.3935141e-02   4.4153938e-02   4.4481839e-02   4.4922528e-02   4.5470466e-02   4.6156061e-02   4.6850540e-02   4.7596629e-02   4.8358489e-02   4.9096943e-02   4.9770395e-02   5.0336352e-02   5.0753895e-02   5.0987303e-02   5.1010818e-02   5.0814163e-02   5.0408027e-02   4.9828337e-02   4.9137966e-02   4.8424619e-02   4.7794097e-02   4.7358943e-02   4.7223523e-02   4.7467606e-02   4.8131277e-02   4.9204246e-02   5.0622178e-02   5.2271522e-02   5.4000000e-02   5.4000000e-02   5.4000000e-02   5.4000000e-02   5.4000000e-02   5.4000000e-02   5.4000000e-02   5.4000000e-02   5.4000000e-02   5.4000000e-02   5.4000000e-02   5.3499915e-02   5.2740159e-02   5.2174564e-02   5.1855418e-02   5.1769656e-02   5.1886230e-02   5.2164897e-02   5.2563977e-02   5.3046023e-02   5.3580944e-02   5.4000000e-02   5.4000000e-02   5.4000000e-02   5.4000000e-02   5.4000000e-02   5.4000000e-02   5.4000000e-02   5.4000000e-02   5.4000000e-02   5.4000000e-02   5.4000000e-02   5.4000000e-02   5.4000000e-02   5.4000000e-02   5.4000000e-02   5.4000000e-02   5.2954137e-02   5.1733564e-02   5.0594482e-02   4.9617973e-02   4.8872066e-02   4.8403097e-02   4.8229373e-02   4.8338205e-02   4.8686939e-02   4.9207987e-02   4.9817242e-02   5.0424690e-02   5.0945701e-02   5.1311347e-02   5.1476299e-02   5.1423247e-02   5.1163392e-02   5.0733161e-02   5.0187882e-02
5.4000000e-02   5.4000000e-02   5.4000000e-02   5.4000000e-02   5.4000000e-02   5.4000000e-02   5.4000000e-02   5.4000000e-02   5.4000000e-02   5.4000000e-02   5.4000000e-02   5.4000000e-02   5.4000000e-02   5.4000000e-02   5.4000000e-02   5.4000000e-02   5.4000000e-02   5.4000000e-02   5.4000000e-02   5.4000000e-02   5.3390152e-02   5.2509096e-02   5.1937489e-02   5.1693214e-02   5.1737498e-02   5.1980813e-02   5.2298822e-02   5.2555460e-02   5.2627609e-02   5.2431480e-02   5.1934261e-02   5.1162541e-02   5.0196868e-02   4.9157712e-02   4.8185570e-02   4.7419397e-02   4.6977371e-02   4.6943033e-02   4.7358314e-02   4.8223451e-02   4.9502475e-02   5.1132242e-02   5.3032770e-02   5.4000000e-02   5.4000000e-02   5.4000000e-02   5.4000000e-02   5.4000000e-02   5.4000000e-02   5.4000000e-02   5.4000000e-02   5.4000000e-02   5.4000000e-02   5.4000000e-02   5.4000000e-02   5.4000000e-02   5.4000000e-02   5.4000000e-02   5.4000000e-02   5.4000000e-02   5.4000000e-02   5.4000000e-02   5.4000000e-02   5.4000000e-02   5.4000000e-02   5.4000000e-02   5.4000000e-02   5.4000000e-02   5.4000000e-02   5.4000000e-02   5.4000000e-02   5.4000000e-02   5.2994241e-02   5.2221102e-02   5.1947690e-02   5.2104127e-02   5.2560286e-02   5.3145624e-02   5.3677055e-02   5.3989408e-02   5.3962377e-02   5.3538638e-02   5.2729825e-02   5.1609796e-02   5.0297305e-02   4.8932290e-02   4.7650906e-02   4.6564157e-02   4.5743710e-02   4.5224316e-02   4.4972162e-02   4.4951191e-02   4.5094428e-02   4.5329533e-02   4.5590802e-02   4.5827711e-02   4.6009310e-02   4.6124700e-02   4.6180401e-02   4.6195753e-02   4.6197489e-02   4.6245392e-02   4.6321713e-02   4.6468838e-02   4.6702803e-02   4.7031613e-02   4.7455121e-02   4.8007024e-02   4.8571306e-02   4.9191956e-02   4.9837750e-02   5.0472257e-02   5.1054207e-02   5.1538637e-02   5.1879240e-02   5.2032242e-02   5.1961845e-02   5.1646884e-02   5.1087813e-02   5.0312703e-02   4.9380624e-02   4.8380850e-02   4.7426777e-02   4.6644331e-02   4.6155831e-02   4.6061468e-02   4.6421556e-02   4.7243062e-02   4.8473552e-02   5.0004505e-02   5.1684198e-02   5.3338385e-02   5.4000000e-02   5.4000000e-02   5.4000000e-02   5.4000000e-02   5.4000000e-02   5.4000000e-02   5.4000000e-02   5.4000000e-02   5.2987297e-02   5.2085130e-02   5.1427882e-02   5.0978997e-02   5.0784110e-02   5.0826089e-02   5.1068656e-02   5.1466012e-02   5.1971366e-02   5.2543201e-02   5.3148754e-02   5.3764819e-02   5.4000000e-02   5.4000000e-02   5.4000000e-02   5.4000000e-02   5.4000000e-02   5.4000000e-02   5.4000000e-02   5.4000000e-02   5.4000000e-02   5.4000000e-02   5.4000000e-02   5.4000000e-02   5.4000000e-02   5.4000000e-02   5.4000000e-02   5.2994351e-02   5.1845726e-02   5.0755593e-02   4.9797483e-02   4.9034480e-02   4.8511456e-02   4.8249219e-02   4.8241554e-02   4.8455735e-02   4.8836578e-02   4.9313497e-02   4.9809607e-02   5.0251515e-02   5.0578386e-02   5.0748982e-02   5.0745746e-02   5.0575489e-02   5.0266777e-02   4.9864656e-02
5.4000000e-02   5.4000000e-02   5.4000000e-02   5.4000000e-02   5.4000000e-02   5.4000000e-02   5.4000000e-02   5.4000000e-02   5.4000000e-02   5.4000000e-02   5.4000000e-02   5.4000000e-02   5.4000000e-02   5.4000000e-02   5.4000000e-02   5.4000000e-02   5.4000000e-02   5.4000000e-02   5.4000000e-02   5.3938116e-02   5.2853088e-02   5.1978719e-02   5.1380381e-02   5.1077593e-02   5.1039346e-02   5.1188915e-02   5.1417626e-02   5.1605087e-02   5.1640653e-02   5.1448102e-02   5.0994837e-02   5.0300729e-02   4.9433704e-02   4.8497896e-02   4.7616529e-02   4.6913154e-02   4.6494735e-02   4.6439266e-02   4.6789300e-02   4.7551393e-02   4.8700403e-02   5.0186891e-02   5.1945720e-02   5.3904219e-02   5.4000000e-02   5.4000000e-02   5.4000000e-02   5.4000000e-02   5.4000000e-02   5.4000000e-02   5.4000000e-02   5.4000000e-02   5.4000000e-02   5.4000000e-02   5.4000000e-02   5.4000000e-02   5.4000000e-02   5.4000000e-02   5.4000000e-02   5.4000000e-02   5.4000000e-02   5.4000000e-02   5.4000000e-02   5.4000000e-02   5.4000000e-02   5.4000000e-02   5.4000000e-02   5.4000000e-02   5.4000000e-02   5.4000000e-02   5.4000000e-02   5.4000000e-02   5.3167964e-02   5.2379620e-02   5.2065686e-02   5.2161381e-02   5.2547108e-02   5.3066587e-02   5.3552272e-02   5.3853114e-02   5.3859113e-02   5.3517809e-02   5.2839687e-02   5.1891961e-02   5.0782675e-02   4.9638956e-02   4.8584123e-02   4.7718077e-02   4.7104362e-02   4.6774658e-02   4.6689013e-02   4.6814769e-02   4.7086849e-02   4.7435112e-02   4.7795499e-02   4.8118032e-02   4.8371031e-02   4.8541732e-02   4.8634051e-02   4.8664495e-02   4.8657273e-02   4.8678670e-02   4.8698898e-02   4.8766796e-02   4.8901406e-02   4.9115138e-02   4.9413373e-02   4.9832690e-02   5.0271572e-02   5.0774665e-02   5.1315822e-02   5.1861835e-02   5.2372225e-02   5.2799953e-02   5.3093584e-02   5.3201343e-02   5.3077188e-02   5.2688543e-02   5.2024775e-02   5.1104928e-02   4.9982818e-02   4.8747639e-02   4.7518622e-02   4.6433317e-02   4.5630331e-02   4.5228804e-02   4.5308068e-02   4.5891442e-02   4.6937830e-02   4.8343544e-02   4.9954843e-02   5.1589488e-02   5.3063629e-02   5.4000000e-02   5.4000000e-02   5.4000000e-02   5.4000000e-02   5.4000000e-02   5.3554739e-02   5.2578385e-02   5.1612594e-02   5.0772706e-02   5.0187301e-02   4.9830580e-02   4.9741108e-02   4.9897014e-02   5.0255941e-02   5.0765602e-02   5.1373162e-02   5.2032138e-02   5.2706282e-02   5.3370524e-02   5.4000000e-02   5.4000000e-02   5.4000000e-02   5.4000000e-02   5.4000000e-02   5.4000000e-02   5.4000000e-02   5.4000000e-02   5.4000000e-02   5.4000000e-02   5.4000000e-02   5.4000000e-02   5.4000000e-02   5.4000000e-02   5.3676776e-02   5.2582786e-02   5.1460898e-02   5.0379289e-02   4.9405532e-02   4.8599095e-02   4.8004353e-02   4.7645165e-02   4.7521893e-02   4.7611422e-02   4.7870261e-02   4.8240341e-02   4.8656669e-02   4.9055727e-02   4.9383372e-02   4.9601101e-02   4.9689860e-02   4.9650963e-02   4.9504200e-02   4.9283601e-02
5.4000000e-02   5.4000000e-02   5.4000000e-02   5.4000000e-02   5.4000000e-02   5.4000000e-02   5.4000000e-02   5.4000000e-02   5.4000000e-02   5.4000000e-02   5.4000000e-02   5.4000000e-02   5.4000000e-02   5.4000000e-02   5.4000000e-02   5.4000000e-02   5.4000000e-02   5.4000000e-02   5.4000000e-02   5.2962585e-02   5.1874800e-02   5.0973641e-02   5.0321890e-02   4.9942256e-02   4.9812692e-02   4.9869980e-02   5.0021229e-02   5.0161187e-02   5.0190502e-02   5.0038768e-02   4.9671387e-02   4.9099012e-02   4.8374352e-02   4.7582731e-02   4.6827934e-02   4.6216394e-02   4.5842709e-02   4.5778792e-02   4.6067870e-02   4.6723426e-02   4.7732210e-02   4.9059907e-02   5.0657879e-02   5.2469631e-02   5.4000000e-02   5.4000000e-02   5.4000000e-02   5.4000000e-02   5.4000000e-02   5.4000000e-02   5.4000000e-02   5.4000000e-02   5.4000000e-02   5.4000000e-02   5.4000000e-02   5.4000000e-02   5.4000000e-02   5.4000000e-02   5.4000000e-02   5.4000000e-02   5.4000000e-02   5.4000000e-02   5.4000000e-02   5.4000000e-02   5.4000000e-02   5.4000000e-02   5.4000000e-02   5.4000000e-02   5.4000000e-02   5.4000000e-02   5.4000000e-02   5.4000000e-02   5.2964171e-02   5.2153358e-02   5.1795263e-02   5.1830798e-02   5.2151776e-02   5.2617173e-02   5.3075858e-02   5.3391394e-02   5.3463986e-02   5.3245220e-02   5.2742898e-02   5.2015469e-02   5.1157790e-02   5.0281631e-02   4.9495141e-02   4.8885247e-02   4.8506164e-02   4.8386070e-02   4.8478381e-02   4.8754835e-02   4.9153241e-02   4.9606881e-02   5.0054651e-02   5.0448401e-02   5.0756889e-02   5.0966500e-02   5.1079377e-02   5.1109851e-02   5.1080106e-02   5.1063756e-02   5.1018568e-02   5.1000295e-02   5.1031100e-02   5.1127882e-02   5.1301614e-02   5.1591428e-02   5.1911442e-02   5.2306495e-02   5.2755806e-02   5.3229758e-02   5.3689083e-02   5.4000000e-02   5.4000000e-02   5.4000000e-02   5.4000000e-02   5.3905509e-02   5.3187721e-02   5.2177843e-02   5.0923230e-02   4.9511397e-02   4.8065502e-02   4.6732583e-02   4.5665313e-02   4.4999629e-02   4.4831947e-02   4.5200380e-02   4.6074104e-02   4.7353769e-02   4.8883734e-02   5.0474488e-02   5.1931363e-02   5.3084242e-02   5.3812686e-02   5.4000000e-02   5.3847014e-02   5.3245915e-02   5.2379541e-02   5.1393523e-02   5.0431017e-02   4.9613246e-02   4.9065385e-02   4.8772106e-02   4.8764727e-02   4.9016130e-02   4.9477232e-02   5.0088539e-02   5.0790432e-02   5.1530745e-02   5.2269053e-02   5.2977769e-02   5.3640682e-02   5.4000000e-02   5.4000000e-02   5.4000000e-02   5.4000000e-02   5.4000000e-02   5.4000000e-02   5.4000000e-02   5.4000000e-02   5.4000000e-02   5.4000000e-02   5.4000000e-02   5.4000000e-02   5.3902137e-02   5.2893463e-02   5.1792327e-02   5.0654623e-02   4.9542954e-02   4.8520555e-02   4.7644653e-02   4.6960151e-02   4.6494555e-02   4.6254947e-02   4.6227508e-02   4.6379724e-02   4.6664994e-02   4.7028953e-02   4.7416580e-02   4.7779039e-02   4.8079269e-02   4.8295579e-02   4.8422861e-02   4.8471413e-02   4.8463761e-02
5.4000000e-02   5.4000000e-02   5.4000000e-02   5.4000000e-02   5.4000000e-02   5.4000000e-02   5.4000000e-02   5.4000000e-02   5.4000000e-02   5.4000000e-02   5.4000000e-02   5.4000000e-02   5.4000000e-02   5.4000000e-02   5.4000000e-02   5.4000000e-02   5.4000000e-02   5.4000000e-02   5.2821884e-02   5.1605645e-02   5.0471428e-02   4.9505655e-02   4.8770715e-02   4.8294287e-02   4.8064463e-02   4.8031992e-02   4.8119462e-02   4.8235737e-02   4.8291148e-02   4.8218962e-02   4.7980238e-02   4.7573985e-02   4.7035378e-02   4.6428862e-02   4.5837074e-02   4.5348035e-02   4.5043123e-02   4.4987738e-02   4.5225753e-02   4.5777892e-02   4.6643414e-02   4.7803989e-02   4.9228536e-02   5.0877935e-02   5.2708838e-02   5.4000000e-02   5.4000000e-02   5.4000000e-02   5.4000000e-02   5.4000000e-02   5.4000000e-02   5.4000000e-02   5.4000000e-02   5.4000000e-02   5.4000000e-02   5.4000000e-02   5.4000000e-02   5.4000000e-02   5.4000000e-02   5.4000000e-02   5.4000000e-02   5.4000000e-02   5.4000000e-02   5.4000000e-02   5.4000000e-02   5.4000000e-02   5.4000000e-02   5.4000000e-02   5.4000000e-02   5.4000000e-02   5.4000000e-02   5.3574911e-02   5.2283919e-02   5.1433046e-02   5.1019485e-02   5.0990746e-02   5.1250888e-02   5.1674778e-02   5.2127978e-02   5.2488464e-02   5.2665869e-02   5.2614465e-02   5.2337496e-02   5.1882404e-02   5.1328448e-02   5.0769688e-02   5.0297014e-02   4.9982725e-02   4.9870669e-02   4.9985038e-02   5.0272082e-02   5.0708750e-02   5.1236487e-02   5.1792981e-02   5.2321185e-02   5.2775907e-02   5.3127436e-02   5.3362315e-02   5.3481814e-02   5.3498864e-02   5.3434262e-02   5.3369567e-02   5.3250353e-02   5.3139610e-02   5.3062780e-02   5.3041320e-02   5.3091809e-02   5.3255682e-02   5.3463221e-02   5.3759139e-02   5.4000000e-02   5.4000000e-02   5.4000000e-02   5.4000000e-02   5.4000000e-02   5.4000000e-02   5.4000000e-02   5.4000000e-02   5.4000000e-02   5.3467727e-02   5.2136579e-02   5.0606816e-02   4.9003592e-02   4.7481107e-02   4.6203547e-02   4.5321067e-02   4.4944809e-02   4.5125766e-02   4.5842110e-02   4.6998309e-02   4.8437092e-02   4.9962680e-02   5.1371198e-02   5.2482584e-02   5.3167922e-02   5.3367191e-02   5.3094249e-02   5.2429860e-02   5.1501442e-02   5.0462196e-02   4.9463072e-02   4.8631532e-02   4.8089832e-02   4.7832538e-02   4.7883779e-02   4.8210929e-02   4.8757868e-02   4.9457545e-02   5.0243173e-02   5.1056497e-02   5.1852485e-02   5.2600578e-02   5.3283172e-02   5.3892288e-02   5.4000000e-02   5.4000000e-02   5.4000000e-02   5.4000000e-02   5.4000000e-02   5.4000000e-02   5.4000000e-02   5.4000000e-02   5.4000000e-02   5.4000000e-02   5.3831043e-02   5.2916333e-02   5.1866074e-02   5.0720665e-02   4.9531638e-02   4.8357591e-02   4.7258901e-02   4.6291805e-02   4.5502654e-02   4.4923109e-02   4.4567030e-02   4.4429511e-02   4.4488250e-02   4.4707048e-02   4.5040913e-02   4.5442007e-02   4.5865539e-02   4.6274777e-02   4.6644501e-02   4.6962536e-02   4.7229300e-02   4.7455650e-02
5.4000000e-02   5.4000000e-02   5.4000000e-02   5.4000000e-02   5.4000000e-02   5.4000000e-02   5.4000000e-02   5.4000000e-02   5.4000000e-02   5.4000000e-02   5.4000000e-02   5.4000000e-02   5.4000000e-02   5.4000000e-02   5.4000000e-02   5.4000000e-02   5.3683003e-02   5.2513601e-02   5.1239827e-02   4.9947068e-02   4.8726502e-02   4.7662175e-02   4.6818267e-02   4.6229039e-02   4.5893600e-02   4.5776724e-02   4.5815743e-02   4.5932235e-02   4.6044400e-02   4.6086941e-02   4.6014479e-02   4.5812388e-02   4.5496610e-02   4.5109368e-02   4.4711149e-02   4.4370881e-02   4.4156284e-02   4.4125998e-02   4.4324433e-02   4.4779557e-02   4.5503231e-02   4.6493309e-02   4.7736586e-02   4.9211772e-02   5.0891907e-02   5.2745901e-02   5.4000000e-02   5.4000000e-02   5.4000000e-02   5.4000000e-02   5.4000000e-02   5.4000000e-02   5.4000000e-02   5.4000000e-02   5.4000000e-02   5.4000000e-02   5.4000000e-02   5.4000000e-02   5.4000000e-02   5.4000000e-02   5.4000000e-02   5.4000000e-02   5.4000000e-02   5.4000000e-02   5.4000000e-02   5.4000000e-02   5.4000000e-02   5.4000000e-02   5.4000000e-02   5.4000000e-02   5.4000000e-02   5.2404441e-02   5.1058471e-02   5.0143616e-02   4.9658701e-02   4.9558977e-02   4.9761498e-02   5.0157301e-02   5.0628394e-02   5.1066370e-02   5.1388991e-02   5.1551484e-02   5.1550500e-02   5.1420294e-02   5.1222356e-02   5.1031026e-02   5.0918223e-02   5.0940277e-02   5.1129863e-02   5.1506674e-02   5.2009267e-02   5.2620399e-02   5.3285643e-02   5.3947785e-02   5.4000000e-02   5.4000000e-02   5.4000000e-02   5.4000000e-02   5.4000000e-02   5.4000000e-02   5.4000000e-02   5.4000000e-02   5.4000000e-02   5.4000000e-02   5.4000000e-02   5.4000000e-02   5.4000000e-02   5.4000000e-02   5.4000000e-02   5.4000000e-02   5.4000000e-02   5.4000000e-02   5.4000000e-02   5.4000000e-02   5.4000000e-02   5.4000000e-02   5.4000000e-02   5.4000000e-02   5.4000000e-02   5.4000000e-02   5.3524376e-02   5.1929212e-02   5.0223300e-02   4.8565644e-02   4.7129232e-02   4.6075659e-02   4.5528247e-02   4.5548856e-02   4.6123413e-02   4.7159871e-02   4.8499920e-02   4.9942902e-02   5.1277710e-02   5.2316609e-02   5.2924480e-02   5.3038112e-02   5.2671709e-02   5.1910027e-02   5.0887524e-02   4.9765255e-02   4.8701912e-02   4.7831060e-02   4.7272260e-02   4.7029154e-02   4.7118978e-02   4.7503695e-02   4.8120311e-02   4.8894418e-02   4.9752263e-02   5.0629672e-02   5.1477138e-02   5.2261215e-02   5.2962956e-02   5.3574415e-02   5.4000000e-02   5.4000000e-02   5.4000000e-02   5.4000000e-02   5.4000000e-02   5.4000000e-02   5.4000000e-02   5.4000000e-02   5.4000000e-02   5.3877826e-02   5.3095562e-02   5.2152503e-02   5.1071418e-02   4.9887946e-02   4.8648759e-02   4.7408253e-02   4.6224058e-02   4.5151845e-02   4.4240088e-02   4.3525475e-02   4.3029609e-02   4.2757475e-02   4.2697886e-02   4.2825813e-02   4.3106248e-02   4.3498971e-02   4.3963527e-02   4.4463681e-02   4.4970782e-02   4.5465640e-02   4.5938837e-02   4.6389595e-02
5.4000000e-02   5.4000000e-02   5.4000000e-02   5.4000000e-02   5.4000000e-02   5.4000000e-02   5.4000000e-02   5.4000000e-02   5.4000000e-02   5.4000000e-02   5.4000000e-02   5.4000000e-02   5.4000000e-02   5.4000000e-02   5.4000000e-02   5.3277052e-02   5.2172471e-02   5.0899131e-02   4.9521885e-02   4.8121991e-02   4.6787719e-02   4.5602868e-02   4.4635121e-02   4.3926399e-02   4.3487129e-02   4.3295626e-02   4.3302796e-02   4.3441271e-02   4.3635378e-02   4.3819203e-02   4.3939427e-02   4.3966600e-02   4.3896683e-02   4.3749325e-02   4.3562808e-02   4.3387055e-02   4.3276234e-02   4.3282229e-02   4.3449828e-02   4.3813913e-02   4.4398481e-02   4.5217035e-02   4.6273725e-02   4.7564690e-02   4.9079146e-02   5.0799994e-02   5.2703849e-02   5.4000000e-02   5.4000000e-02   5.4000000e-02   5.4000000e-02   5.4000000e-02   5.4000000e-02   5.4000000e-02   5.4000000e-02   5.4000000e-02   5.4000000e-02   5.4000000e-02   5.4000000e-02   5.4000000e-02   5.4000000e-02   5.4000000e-02   5.4000000e-02   5.4000000e-02   5.4000000e-02   5.4000000e-02   5.4000000e-02   5.4000000e-02   5.4000000e-02   5.4000000e-02   5.2529432e-02   5.0707986e-02   4.9276674e-02   4.8274150e-02   4.7702543e-02   4.7526011e-02   4.7675160e-02   4.8057119e-02   4.8569659e-02   4.9116793e-02   4.9622830e-02   5.0042143e-02   5.0362907e-02   5.0604359e-02   5.0808560e-02   5.1028708e-02   5.1316589e-02   5.1711682e-02   5.2235032e-02   5.2901315e-02   5.3640936e-02   5.4000000e-02   5.4000000e-02   5.4000000e-02   5.4000000e-02   5.4000000e-02   5.4000000e-02   5.4000000e-02   5.4000000e-02   5.4000000e-02   5.4000000e-02   5.4000000e-02   5.4000000e-02   5.4000000e-02   5.4000000e-02   5.4000000e-02   5.4000000e-02   5.4000000e-02   5.4000000e-02   5.4000000e-02   5.4000000e-02   5.4000000e-02   5.4000000e-02   5.4000000e-02   5.4000000e-02   5.4000000e-02   5.4000000e-02   5.4000000e-02   5.4000000e-02   5.4000000e-02   5.4000000e-02   5.3353998e-02   5.1591559e-02   4.9845824e-02   4.8295846e-02   4.7111808e-02   4.6426628e-02   4.6311066e-02   4.6757735e-02   4.7678047e-02   4.8913639e-02   5.0260796e-02   5.1503502e-02   5.2448808e-02   5.2957612e-02   5.2965225e-02   5.2487117e-02   5.1612376e-02   5.0482103e-02   4.9264509e-02   4.8125137e-02   4.7202745e-02   4.6614275e-02   4.6371270e-02   4.6484526e-02   4.6910945e-02   4.7581168e-02   4.8413979e-02   4.9329120e-02   5.0256782e-02   5.1143024e-02   5.1951283e-02   5.2660760e-02   5.3262774e-02   5.3756198e-02   5.4000000e-02   5.4000000e-02   5.4000000e-02   5.4000000e-02   5.4000000e-02   5.4000000e-02   5.4000000e-02   5.3529733e-02   5.2820108e-02   5.1941542e-02   5.0903450e-02   4.9727768e-02   4.8448810e-02   4.7111761e-02   4.5769810e-02   4.4480153e-02   4.3299278e-02   4.2278082e-02   4.1457429e-02   4.0864756e-02   4.0512138e-02   4.0396090e-02   4.0499065e-02   4.0792398e-02   4.1240218e-02   4.1803746e-02   4.2445366e-02   4.3131944e-02   4.3837035e-02   4.4541830e-02   4.5234901e-02
5.4000000e-02   5.4000000e-02   5.4000000e-02   5.4000000e-02   5.4000000e-02   5.4000000e-02   5.4000000e-02   5.4000000e-02   5.4000000e-02   5.4000000e-02   5.4000000e-02   5.4000000e-02   5.4000000e-02   5.3730770e-02   5.2938479e-02   5.1921146e-02   5.0696681e-02   4.9305981e-02   4.7811473e-02   4.6292113e-02   4.4835198e-02   4.3526081e-02   4.2437383e-02   4.1619583e-02   4.1094704e-02   4.0854290e-02   4.0862048e-02   4.1060623e-02   4.1379591e-02   4.1751127e-02   4.2113374e-02   4.2421547e-02   4.2651240e-02   4.2799105e-02   4.2880565e-02   4.2925488e-02   4.2972945e-02   4.3066030e-02   4.3247485e-02   4.3556460e-02   4.4026477e-02   4.4684351e-02   4.5549765e-02   4.6635162e-02   4.7945645e-02   4.9478709e-02   5.1223672e-02   5.3196304e-02   5.4000000e-02   5.4000000e-02   5.4000000e-02   5.4000000e-02   5.4000000e-02   5.4000000e-02   5.4000000e-02   5.4000000e-02   5.4000000e-02   5.4000000e-02   5.4000000e-02   5.4000000e-02   5.4000000e-02   5.4000000e-02   5.4000000e-02   5.4000000e-02   5.4000000e-02   5.4000000e-02   5.4000000e-02   5.4000000e-02   5.4000000e-02   5.2729046e-02   5.0470221e-02   4.8539104e-02   4.7001189e-02   4.5895206e-02   4.5228121e-02   4.4973891e-02   4.5076901e-02   4.5459902e-02   4.6035425e-02   4.6718527e-02   4.7438507e-02   4.8147348e-02   4.8823374e-02   4.9469689e-02   5.0108088e-02   5.0770040e-02   5.1486815e-02   5.2280779e-02   5.3161351e-02   5.4000000e-02   5.4000000e-02   5.4000000e-02   5.4000000e-02   5.4000000e-02   5.4000000e-02   5.4000000e-02   5.4000000e-02   5.4000000e-02   5.4000000e-02   5.4000000e-02   5.4000000e-02   5.4000000e-02   5.4000000e-02   5.4000000e-02   5.4000000e-02   5.4000000e-02   5.4000000e-02   5.4000000e-02   5.4000000e-02   5.4000000e-02   5.4000000e-02   5.4000000e-02   5.4000000e-02   5.4000000e-02   5.4000000e-02   5.4000000e-02   5.4000000e-02   5.4000000e-02   5.4000000e-02   5.4000000e-02   5.4000000e-02   5.4000000e-02   5.2976462e-02   5.1181923e-02   4.9556983e-02   4.8277536e-02   4.7483504e-02   4.7252656e-02   4.7583412e-02   4.8390917e-02   4.9518129e-02   5.0760483e-02   5.1899707e-02   5.2740239e-02   5.3141128e-02   5.3037570e-02   5.2446570e-02   5.1461075e-02   5.0227506e-02   4.8919595e-02   4.7708018e-02   4.6735277e-02   4.6115365e-02   4.5866415e-02   4.5993442e-02   4.6449009e-02   4.7158429e-02   4.8034837e-02   4.8992599e-02   4.9957237e-02   5.0871107e-02   5.1695000e-02   5.2406491e-02   5.2996174e-02   5.3462956e-02   5.3809413e-02   5.4000000e-02   5.4000000e-02   5.4000000e-02   5.3989245e-02   5.3699705e-02   5.3298366e-02   5.2664937e-02   5.1864828e-02   5.0896506e-02   4.9769305e-02   4.8504522e-02   4.7135437e-02   4.5706087e-02   4.4268782e-02   4.2880541e-02   4.1598775e-02   4.0476709e-02   3.9559065e-02   3.8878554e-02   3.8453596e-02   3.8287541e-02   3.8369426e-02   3.8676120e-02   3.9175486e-02   3.9830086e-02   4.0600921e-02   4.1450730e-02   4.2346494e-02   4.3260953e-02   4.4173129e-02
5.4000000e-02   5.4000000e-02   5.4000000e-02   5.4000000e-02   5.4000000e-02   5.4000000e-02   5.4000000e-02   5.4000000e-02   5.4000000e-02   5.4000000e-02   5.4000000e-02   5.3932154e-02   5.3445823e-02   5.2757631e-02   5.1849653e-02   5.0719952e-02   4.9386565e-02   4.7889382e-02   4.6289159e-02   4.4663318e-02   4.3098765e-02   4.1682573e-02   4.0491886e-02   3.9584650e-02   3.8992757e-02   3.8718786e-02   3.8736859e-02   3.8997424e-02   3.9433947e-02   3.9975340e-02   4.0551563e-02   4.1103670e-02   4.1588966e-02   4.1983823e-02   4.2283829e-02   4.2501767e-02   4.2664192e-02   4.2807339e-02   4.2973012e-02   4.3204870e-02   4.3545341e-02   4.4033199e-02   4.4701735e-02   4.5577408e-02   4.6678798e-02   4.8015709e-02   4.9588244e-02   5.1414159e-02   5.3431287e-02   5.4000000e-02   5.4000000e-02   5.4000000e-02   5.4000000e-02   5.4000000e-02   5.4000000e-02   5.4000000e-02   5.4000000e-02   5.4000000e-02   5.4000000e-02   5.4000000e-02   5.4000000e-02   5.4000000e-02   5.4000000e-02   5.4000000e-02   5.4000000e-02   5.4000000e-02   5.4000000e-02   5.4000000e-02   5.3073895e-02   5.0442374e-02   4.8062427e-02   4.6016250e-02   4.4367840e-02   4.3157553e-02   4.2398210e-02   4.2073945e-02   4.2142628e-02   4.2541796e-02   4.3197526e-02   4.4034577e-02   4.4986009e-02   4.6000482e-02   4.7045947e-02   4.8109284e-02   4.9192285e-02   5.0305187e-02   5.1459308e-02   5.2660392e-02   5.3906810e-02   5.4000000e-02   5.4000000e-02   5.4000000e-02   5.4000000e-02   5.4000000e-02   5.4000000e-02   5.4000000e-02   5.4000000e-02   5.4000000e-02   5.4000000e-02   5.4000000e-02   5.4000000e-02   5.4000000e-02   5.4000000e-02   5.4000000e-02   5.4000000e-02   5.4000000e-02   5.4000000e-02   5.4000000e-02   5.4000000e-02   5.4000000e-02   5.4000000e-02   5.4000000e-02   5.4000000e-02   5.4000000e-02   5.4000000e-02   5.4000000e-02   5.4000000e-02   5.4000000e-02   5.4000000e-02   5.4000000e-02   5.4000000e-02   5.4000000e-02   5.4000000e-02   5.2457708e-02   5.0791542e-02   4.9447889e-02   4.8571040e-02   4.8243900e-02   4.8469924e-02   4.9168473e-02   5.0185475e-02   5.1318028e-02   5.2348493e-02   5.3081432e-02   5.3376102e-02   5.3168684e-02   5.2477459e-02   5.1398123e-02   5.0080350e-02   4.8701010e-02   4.7433536e-02   4.6422225e-02   4.5777519e-02   4.5522716e-02   4.5657841e-02   4.6132108e-02   4.6866903e-02   4.7771286e-02   4.8755775e-02   4.9742553e-02   5.0671306e-02   5.1500885e-02   5.2207629e-02   5.2781538e-02   5.3221483e-02   5.3530474e-02   5.3711713e-02   5.3765851e-02   5.3689597e-02   5.3475652e-02   5.3113787e-02   5.2639654e-02   5.1930337e-02   5.1054961e-02   5.0012440e-02   4.8812034e-02   4.7474463e-02   4.6032063e-02   4.4527800e-02   4.3013115e-02   4.1544737e-02   4.0180715e-02   3.8976110e-02   3.7978792e-02   3.7225853e-02   3.6741034e-02   3.6533456e-02   3.6597757e-02   3.6915542e-02   3.7457908e-02   3.8188635e-02   3.9067642e-02   4.0054251e-02   4.1109939e-02   4.2200345e-02   4.3296438e-02
5.4000000e-02   5.4000000e-02   5.4000000e-02   5.4000000e-02   5.4000000e-02   5.4000000e-02   5.4000000e-02   5.4000000e-02   5.4000000e-02   5.3993478e-02   5.3731638e-02   5.3326622e-02   5.2746815e-02   5.1966101e-02   5.0968728e-02   4.9754060e-02   4.8340361e-02   4.6766741e-02   4.5092546e-02   4.3393827e-02   4.1756997e-02   4.0270342e-02   3.9014501e-02   3.8053349e-02   3.7426705e-02   3.7146044e-02   3.7193887e-02   3.7526898e-02   3.8082045e-02   3.8784404e-02   3.9557136e-02   4.0329114e-02   4.1041966e-02   4.1654674e-02   4.2145755e-02   4.2513178e-02   4.2772469e-02   4.2953526e-02   4.3096738e-02   4.3248865e-02   4.3459080e-02   4.3775429e-02   4.4241883e-02   4.4896016e-02   4.5767282e-02   4.6875732e-02   4.8230960e-02   4.9853084e-02   5.1696617e-02   5.3748206e-02   5.4000000e-02   5.4000000e-02   5.4000000e-02   5.4000000e-02   5.4000000e-02   5.4000000e-02   5.4000000e-02   5.4000000e-02   5.4000000e-02   5.4000000e-02   5.4000000e-02   5.4000000e-02   5.4000000e-02   5.4000000e-02   5.4000000e-02   5.4000000e-02   5.4000000e-02   5.3572168e-02   5.0669816e-02   4.7931785e-02   4.5451448e-02   4.3309266e-02   4.1568742e-02   4.0272529e-02   3.9439466e-02   3.9063454e-02   3.9114933e-02   3.9544973e-02   4.0291871e-02   4.1288952e-02   4.2472346e-02   4.3787301e-02   4.5191960e-02   4.6658106e-02   4.8169068e-02   4.9715546e-02   5.1290519e-02   5.2884435e-02   5.4000000e-02   5.4000000e-02   5.4000000e-02   5.4000000e-02   5.4000000e-02   5.4000000e-02   5.4000000e-02   5.4000000e-02   5.4000000e-02   5.4000000e-02   5.4000000e-02   5.4000000e-02   5.4000000e-02   5.4000000e-02   5.4000000e-02   5.4000000e-02   5.4000000e-02   5.4000000e-02   5.4000000e-02   5.4000000e-02   5.4000000e-02   5.4000000e-02   5.4000000e-02   5.4000000e-02   5.4000000e-02   5.4000000e-02   5.4000000e-02   5.4000000e-02   5.4000000e-02   5.4000000e-02   5.4000000e-02   5.4000000e-02   5.4000000e-02   5.4000000e-02   5.4000000e-02   5.3592561e-02   5.1916702e-02   5.0538692e-02   4.9604472e-02   4.9200143e-02   4.9333420e-02   4.9928428e-02   5.0835845e-02   5.1857102e-02   5.2778228e-02   5.3406716e-02   5.3604067e-02   5.3308392e-02   5.2538658e-02   5.1391804e-02   5.0018241e-02   4.8595115e-02   4.7295823e-02   4.6264198e-02   4.5606356e-02   4.5349299e-02   4.5488936e-02   4.5972316e-02   4.6718553e-02   4.7634483e-02   4.8628579e-02   4.9621253e-02   5.0550755e-02   5.1374851e-02   5.2069154e-02   5.2623280e-02   5.3036048e-02   5.3310742e-02   5.3451153e-02   5.3458815e-02   5.3331583e-02   5.3063502e-02   5.2645783e-02   5.2116272e-02   5.1351385e-02   5.0422381e-02   4.9328559e-02   4.8079051e-02   4.6693945e-02   4.5204541e-02   4.3652575e-02   4.2088349e-02   4.0567864e-02   3.9149187e-02   3.7888380e-02   3.6835440e-02   3.6030673e-02   3.5501909e-02   3.5262848e-02   3.5312692e-02   3.5637030e-02   3.6209811e-02   3.6996111e-02   3.7955310e-02   3.9044316e-02   4.0220484e-02   4.1443999e-02   4.2679571e-02
5.4000000e-02   5.4000000e-02   5.4000000e-02   5.4000000e-02   5.4000000e-02   5.4000000e-02   5.4000000e-02   5.3982401e-02   5.3847499e-02   5.3666545e-02   5.3341858e-02   5.2872868e-02   5.2230630e-02   5.1391596e-02   5.0342083e-02   4.9082669e-02   4.7631765e-02   4.6027585e-02   4.4327824e-02   4.2606673e-02   4.0949199e-02   3.9443577e-02   3.8172144e-02   3.7202479e-02   3.6579859e-02   3.6322219e-02   3.6418396e-02   3.6829879e-02   3.7497326e-02   3.8341798e-02   3.9281870e-02   4.0237016e-02   4.1136586e-02   4.1925775e-02   4.2569396e-02   4.3053331e-02   4.3383845e-02   4.3585150e-02   4.3695701e-02   4.3763771e-02   4.3842812e-02   4.3987061e-02   4.4247760e-02   4.4670178e-02   4.5291506e-02   4.6139471e-02   4.7231401e-02   4.8589909e-02   5.0185432e-02   5.2009409e-02   5.4000000e-02   5.4000000e-02   5.4000000e-02   5.4000000e-02   5.4000000e-02   5.4000000e-02   5.4000000e-02   5.4000000e-02   5.4000000e-02   5.4000000e-02   5.4000000e-02   5.4000000e-02   5.4000000e-02   5.4000000e-02   5.4000000e-02   5.4000000e-02   5.4000000e-02   5.1100752e-02   4.8136879e-02   4.5341867e-02   4.2807886e-02   4.0613775e-02   3.8822496e-02   3.7478581e-02   3.6606012e-02   3.6207149e-02   3.6263395e-02   3.6737711e-02   3.7579224e-02   3.8728994e-02   4.0126168e-02   4.1713420e-02   4.3440784e-02   4.5267341e-02   4.7160749e-02   4.9095056e-02   5.1047543e-02   5.2995488e-02   5.4000000e-02   5.4000000e-02   5.4000000e-02   5.4000000e-02   5.4000000e-02   5.4000000e-02   5.4000000e-02   5.4000000e-02   5.4000000e-02   5.4000000e-02   5.4000000e-02   5.4000000e-02   5.4000000e-02   5.4000000e-02   5.4000000e-02   5.4000000e-02   5.4000000e-02   5.4000000e-02   5.4000000e-02   5.4000000e-02   5.4000000e-02   5.4000000e-02   5.4000000e-02   5.4000000e-02   5.4000000e-02   5.4000000e-02   5.4000000e-02   5.4000000e-02   5.4000000e-02   5.4000000e-02   5.4000000e-02   5.4000000e-02   5.4000000e-02   5.4000000e-02   5.4000000e-02   5.4000000e-02   5.2886325e-02   5.1504095e-02   5.0538832e-02   5.0077810e-02   5.0132146e-02   5.0631228e-02   5.1432242e-02   5.2343623e-02   5.3158119e-02   5.3688960e-02   5.3801891e-02   5.3437849e-02   5.2615720e-02   5.1432052e-02   5.0035300e-02   4.8599830e-02   4.7296061e-02   4.6264990e-02   4.5607539e-02   4.5353011e-02   4.5494112e-02   4.5977008e-02   4.6720320e-02   4.7630641e-02   4.8616329e-02   4.9597708e-02   5.0512912e-02   5.1319553e-02   5.1993071e-02   5.2522951e-02   5.2907984e-02   5.3151600e-02   5.3257969e-02   5.3229264e-02   5.3064242e-02   5.2758058e-02   5.2303159e-02   5.1738462e-02   5.0941838e-02   4.9985051e-02   4.8867713e-02   4.7598729e-02   4.6197404e-02   4.4693780e-02   4.3128025e-02   4.1548811e-02   4.0010747e-02   3.8571041e-02   3.7285696e-02   3.6205601e-02   3.5372938e-02   3.4818276e-02   3.4558643e-02   3.4596774e-02   3.4921542e-02   3.5509487e-02   3.6327201e-02   3.7334251e-02   3.8486315e-02   3.9738200e-02   4.1046470e-02   4.2371518e-02
5.4000000e-02   5.4000000e-02   5.4000000e-02   5.4000000e-02   5.4000000e-02   5.3990641e-02   5.3931113e-02   5.3825632e-02   5.3653800e-02   5.3440199e-02   5.3078808e-02   5.2576153e-02   5.1906050e-02   5.1047544e-02   4.9988982e-02   4.8732051e-02   4.7295109e-02   4.5715116e-02   4.4047516e-02   4.2363710e-02   4.0746056e-02   3.9280801e-02   3.8049706e-02   3.7121469e-02   3.6544129e-02   3.6339573e-02   3.6500964e-02   3.6993471e-02   3.7762131e-02   3.8724033e-02   3.9795939e-02   4.0891157e-02   4.1930563e-02   4.2849508e-02   4.3602723e-02   4.4166894e-02   4.4540899e-02   4.4743938e-02   4.4811987e-02   4.4793161e-02   4.4742597e-02   4.4717470e-02   4.4772675e-02   4.4957507e-02   4.5313479e-02   4.5873134e-02   4.6659490e-02   4.7697557e-02   4.8972674e-02   5.0483203e-02   5.2205900e-02   5.4000000e-02   5.4000000e-02   5.4000000e-02   5.4000000e-02   5.4000000e-02   5.4000000e-02   5.4000000e-02   5.4000000e-02   5.4000000e-02   5.4000000e-02   5.4000000e-02   5.4000000e-02   5.4000000e-02   5.4000000e-02   5.4000000e-02   5.1584195e-02   4.8560275e-02   4.5605860e-02   4.2823493e-02   4.0303389e-02   3.8121931e-02   3.6340422e-02   3.5003785e-02   3.4139272e-02   3.3755569e-02   3.3842873e-02   3.4374161e-02   3.5308133e-02   3.6593247e-02   3.8172457e-02   3.9987828e-02   4.1984299e-02   4.4112060e-02   4.6327330e-02   4.8591721e-02   5.0870615e-02   5.3131173e-02   5.4000000e-02   5.4000000e-02   5.4000000e-02   5.4000000e-02   5.4000000e-02   5.4000000e-02   5.4000000e-02   5.4000000e-02   5.4000000e-02   5.4000000e-02   5.4000000e-02   5.4000000e-02   5.4000000e-02   5.4000000e-02   5.4000000e-02   5.4000000e-02   5.4000000e-02   5.4000000e-02   5.4000000e-02   5.4000000e-02   5.4000000e-02   5.4000000e-02   5.4000000e-02   5.4000000e-02   5.4000000e-02   5.4000000e-02   5.4000000e-02   5.4000000e-02   5.4000000e-02   5.4000000e-02   5.4000000e-02   5.4000000e-02   5.4000000e-02   5.4000000e-02   5.4000000e-02   5.4000000e-02   5.3688397e-02   5.2328700e-02   5.1356767e-02   5.0858807e-02   5.0848271e-02   5.1260077e-02   5.1959453e-02   5.2764295e-02   5.3476921e-02   5.3918942e-02   5.3962224e-02   5.3551361e-02   5.2704298e-02   5.1515543e-02   5.0129017e-02   4.8713233e-02   4.7432731e-02   4.6423351e-02   4.5779954e-02   4.5532846e-02   4.5672438e-02   4.6145301e-02   4.6871347e-02   4.7758910e-02   4.8718156e-02   4.9670996e-02   5.0556767e-02   5.1333852e-02   5.1978082e-02   5.2479071e-02   5.2835624e-02   5.3051217e-02   5.3130224e-02   5.3075259e-02   5.2885782e-02   5.2557884e-02   5.2085097e-02   5.1506337e-02   5.0703091e-02   4.9746019e-02   4.8634980e-02   4.7378525e-02   4.5994974e-02   4.4512801e-02   4.2970162e-02   4.1413489e-02   3.9895197e-02   3.8470645e-02   3.7194592e-02   3.6117501e-02   3.5282041e-02   3.4720150e-02   3.4450953e-02   3.4479731e-02   3.4798024e-02   3.5384783e-02   3.6208429e-02   3.7229525e-02   3.8403786e-02   3.9685093e-02   4.1028256e-02   4.2391322e-02
5.4000000e-02   5.4000000e-02   5.4000000e-02   5.3995143e-02   5.3971402e-02   5.3926165e-02   5.3848992e-02   5.3724307e-02   5.3532953e-02   5.3307890e-02   5.2935051e-02   5.2428321e-02   5.1764456e-02   5.0925186e-02   4.9900889e-02   4.8694245e-02   4.7323297e-02   4.5823270e-02   4.4246596e-02   4.2660756e-02   4.1143856e-02   3.9778224e-02   3.8642690e-02   3.7804470e-02   3.7311751e-02   3.7188035e-02   3.7429061e-02   3.8002789e-02   3.8859726e-02   3.9913058e-02   4.1080744e-02   4.2273237e-02   4.3406749e-02   4.4410667e-02   4.5233162e-02   4.5844514e-02   4.6237990e-02   4.6428387e-02   4.6448639e-02   4.6345053e-02   4.6171909e-02   4.5986133e-02   4.5842717e-02   4.5791355e-02   4.5874475e-02   4.6126526e-02   4.6574068e-02   4.7244244e-02   4.8136080e-02   4.9256743e-02   5.0596287e-02   5.2129288e-02   5.3811331e-02   5.4000000e-02   5.4000000e-02   5.4000000e-02   5.4000000e-02   5.4000000e-02   5.4000000e-02   5.4000000e-02   5.4000000e-02   5.4000000e-02   5.4000000e-02   5.4000000e-02   5.4000000e-02   5.1915197e-02   4.9011974e-02   4.6070916e-02   4.3204734e-02   4.0514265e-02   3.8086378e-02   3.5993306e-02   3.4292596e-02   3.3027015e-02   3.2224183e-02   3.1896049e-02   3.2038649e-02   3.2632503e-02   3.3644222e-02   3.5029091e-02   3.6734545e-02   3.8703961e-02   4.0880197e-02   4.3208335e-02   4.5637322e-02   4.8120459e-02   5.0614938e-02   5.3080819e-02   5.4000000e-02   5.4000000e-02   5.4000000e-02   5.4000000e-02   5.4000000e-02   5.4000000e-02   5.4000000e-02   5.4000000e-02   5.4000000e-02   5.4000000e-02   5.4000000e-02   5.4000000e-02   5.4000000e-02   5.4000000e-02   5.4000000e-02   5.4000000e-02   5.4000000e-02   5.4000000e-02   5.4000000e-02   5.4000000e-02   5.4000000e-02   5.4000000e-02   5.4000000e-02   5.4000000e-02   5.4000000e-02   5.4000000e-02   5.4000000e-02   5.4000000e-02   5.4000000e-02   5.4000000e-02   5.4000000e-02   5.4000000e-02   5.4000000e-02   5.4000000e-02   5.4000000e-02   5.4000000e-02   5.4000000e-02   5.2972369e-02   5.2021242e-02   5.1508597e-02   5.1449589e-02   5.1785188e-02   5.2390264e-02   5.3094555e-02   5.3712646e-02   5.4000000e-02   5.4000000e-02   5.3632497e-02   5.2788763e-02   5.1627069e-02   5.0284152e-02   4.8919908e-02   4.7690281e-02   4.6723782e-02   4.6108380e-02   4.5874232e-02   4.6010298e-02   4.6464793e-02   4.7160608e-02   4.8009692e-02   4.8925840e-02   4.9834138e-02   5.0676371e-02   5.1412577e-02   5.2019519e-02   5.2487197e-02   5.2814486e-02   5.3004836e-02   5.3062680e-02   5.2990914e-02   5.2789544e-02   5.2455465e-02   5.1983180e-02   5.1410634e-02   5.0624966e-02   4.9694244e-02   4.8618511e-02   4.7405829e-02   4.6073314e-02   4.4647541e-02   4.3164176e-02   4.1666776e-02   4.0204744e-02   3.8830583e-02   3.7596650e-02   3.6551700e-02   3.5737557e-02   3.5186241e-02   3.4917824e-02   3.4939248e-02   3.5244172e-02   3.5813842e-02   3.6618851e-02   3.7621566e-02   3.8778956e-02   4.0045529e-02   4.1376110e-02   4.2728247e-02
5.4000000e-02   5.3997677e-02   5.3989024e-02   5.3971951e-02   5.3941050e-02   5.3887742e-02   5.3802515e-02   5.3670822e-02   5.3475134e-02   5.3256990e-02   5.2894841e-02   5.2410074e-02   5.1782559e-02   5.0996808e-02   5.0045232e-02   4.8931390e-02   4.7672734e-02   4.6302278e-02   4.4868694e-02   4.3434467e-02   4.2072002e-02   4.0857904e-02   3.9865951e-02   3.9159591e-02   3.8784911e-02   3.8765060e-02   3.9096943e-02   3.9750693e-02   4.0683647e-02   4.1805004e-02   4.3036877e-02   4.4289922e-02   4.5479142e-02   4.6531438e-02   4.7391545e-02   4.8025782e-02   4.8423327e-02   4.8595056e-02   4.8570282e-02   4.8391971e-02   4.8111212e-02   4.7781769e-02   4.7455492e-02   4.7179148e-02   4.6992933e-02   4.6930477e-02   4.7019822e-02   4.7289860e-02   4.7752003e-02   4.8423722e-02   4.9310494e-02   5.0404559e-02   5.1679708e-02   5.3086941e-02   5.4000000e-02   5.4000000e-02   5.4000000e-02   5.4000000e-02   5.4000000e-02   5.4000000e-02   5.4000000e-02   5.4000000e-02   5.4000000e-02   5.4000000e-02   5.1909487e-02   4.9297768e-02   4.6537580e-02   4.3749788e-02   4.1046151e-02   3.8524460e-02   3.6266540e-02   3.4338309e-02   3.2790869e-02   3.1661690e-02   3.0975313e-02   3.0743478e-02   3.0964861e-02   3.1625038e-02   3.2697055e-02   3.4142839e-02   3.5915534e-02   3.7962436e-02   4.0228092e-02   4.2657071e-02   4.5196021e-02   4.7794826e-02   5.0406885e-02   5.2988730e-02   5.4000000e-02   5.4000000e-02   5.4000000e-02   5.4000000e-02   5.4000000e-02   5.4000000e-02   5.4000000e-02   5.4000000e-02   5.4000000e-02   5.4000000e-02   5.4000000e-02   5.4000000e-02   5.4000000e-02   5.4000000e-02   5.4000000e-02   5.4000000e-02   5.4000000e-02   5.4000000e-02   5.4000000e-02   5.4000000e-02   5.4000000e-02   5.4000000e-02   5.4000000e-02   5.4000000e-02   5.4000000e-02   5.4000000e-02   5.4000000e-02   5.4000000e-02   5.4000000e-02   5.4000000e-02   5.4000000e-02   5.4000000e-02   5.4000000e-02   5.4000000e-02   5.4000000e-02   5.4000000e-02   5.4000000e-02   5.3407695e-02   5.2494664e-02   5.1981808e-02   5.1885409e-02   5.2152888e-02   5.2670064e-02   5.3280474e-02   5.3813151e-02   5.4000000e-02   5.4000000e-02   5.3636344e-02   5.2826140e-02   5.1725152e-02   5.0460531e-02   4.9180889e-02   4.8031065e-02   4.7130259e-02   4.6558773e-02   4.6345606e-02   4.6479024e-02   4.6910001e-02   4.7565940e-02   4.8364109e-02   4.9223582e-02   5.0074066e-02   5.0860945e-02   5.1546728e-02   5.2109623e-02   5.2540278e-02   5.2837713e-02   5.3005308e-02   5.3047457e-02   5.2967207e-02   5.2764993e-02   5.2438409e-02   5.1982843e-02   5.1434435e-02   5.0687750e-02   4.9806979e-02   4.8792286e-02   4.7651128e-02   4.6399212e-02   4.5060906e-02   4.3668958e-02   4.2263465e-02   4.0890081e-02   3.9597559e-02   3.8434815e-02   3.7447761e-02   3.6676207e-02   3.6151119e-02   3.5892525e-02   3.5908254e-02   3.6193624e-02   3.6732086e-02   3.7496723e-02   3.8452425e-02   3.9558497e-02   4.0771440e-02   4.2047644e-02   4.3345783e-02
5.3996216e-02   5.3990326e-02   5.3979173e-02   5.3959326e-02   5.3925730e-02   5.3870251e-02   5.3784644e-02   5.3655681e-02   5.3467759e-02   5.3270918e-02   5.2936915e-02   5.2494561e-02   5.1926953e-02   5.1221432e-02   5.0372412e-02   4.9384213e-02   4.8273461e-02   4.7070573e-02   4.5819871e-02   4.4578009e-02   4.3410583e-02   4.2387080e-02   4.1574616e-02   4.1031135e-02   4.0798926e-02   4.0899334e-02   4.1329424e-02   4.2061141e-02   4.3060127e-02   4.4231293e-02   4.5503552e-02   4.6790323e-02   4.8008253e-02   4.9084597e-02   4.9963180e-02   5.0608297e-02   5.1006205e-02   5.1164162e-02   5.1107290e-02   5.0873856e-02   5.0509750e-02   5.0063099e-02   4.9579856e-02   4.9101047e-02   4.8661947e-02   4.8293017e-02   4.8021942e-02   4.7878950e-02   4.7886495e-02   4.8073406e-02   4.8462091e-02   4.9064752e-02   4.9876279e-02   5.0867617e-02   5.1981593e-02   5.3132236e-02   5.4000000e-02   5.4000000e-02   5.4000000e-02   5.4000000e-02   5.4000000e-02   5.4000000e-02   5.3291680e-02   5.1474389e-02   4.9290299e-02   4.6851657e-02   4.4281045e-02   4.1699411e-02   3.9216829e-02   3.6926894e-02   3.4904689e-02   3.3207501e-02   3.1877067e-02   3.0942137e-02   3.0420466e-02   3.0319903e-02   3.0638396e-02   3.1364008e-02   3.2474689e-02   3.3938781e-02   3.5716315e-02   3.7761032e-02   4.0022830e-02   4.2450213e-02   4.4992354e-02   4.7600480e-02   5.0228495e-02   5.2832939e-02   5.4000000e-02   5.4000000e-02   5.4000000e-02   5.4000000e-02   5.4000000e-02   5.4000000e-02   5.4000000e-02   5.4000000e-02   5.4000000e-02   5.4000000e-02   5.4000000e-02   5.4000000e-02   5.4000000e-02   5.4000000e-02   5.4000000e-02   5.4000000e-02   5.4000000e-02   5.4000000e-02   5.4000000e-02   5.4000000e-02   5.4000000e-02   5.4000000e-02   5.4000000e-02   5.4000000e-02   5.4000000e-02   5.4000000e-02   5.4000000e-02   5.4000000e-02   5.4000000e-02   5.4000000e-02   5.4000000e-02   5.4000000e-02   5.4000000e-02   5.4000000e-02   5.4000000e-02   5.4000000e-02   5.4000000e-02   5.3572353e-02   5.2703338e-02   5.2195406e-02   5.2065886e-02   5.2269254e-02   5.2703501e-02   5.3227559e-02   5.3686553e-02   5.3939795e-02   5.3885844e-02   5.3483471e-02   5.2741165e-02   5.1738384e-02   5.0590341e-02   4.9431862e-02   4.8394382e-02   4.7585994e-02   4.7078597e-02   4.6899160e-02   4.7035892e-02   4.7443495e-02   4.8055212e-02   4.8795118e-02   4.9589024e-02   5.0372539e-02   5.1095682e-02   5.1724187e-02   5.2238198e-02   5.2629286e-02   5.2896725e-02   5.3043828e-02   5.3074888e-02   5.2993019e-02   5.2798996e-02   5.2491026e-02   5.2065315e-02   5.1555529e-02   5.0865064e-02   5.0053206e-02   4.9120192e-02   4.8072779e-02   4.6925106e-02   4.5699095e-02   4.4424239e-02   4.3136723e-02   4.1877867e-02   4.0691966e-02   3.9623671e-02   3.8715146e-02   3.8003239e-02   3.7516954e-02   3.7275462e-02   3.7286847e-02   3.7547706e-02   3.8043610e-02   3.8750380e-02   3.9635999e-02   4.0662976e-02   4.1790907e-02   4.2979001e-02   4.4188371e-02
5.3993411e-02   5.3986703e-02   5.3974824e-02   5.3954653e-02   5.3921664e-02   5.3868350e-02   5.3787944e-02   5.3668725e-02   5.3497189e-02   5.3331485e-02   5.3037622e-02   5.2651510e-02   5.2159471e-02   5.1551632e-02   5.0824328e-02   4.9982520e-02   4.9041840e-02   4.8029863e-02   4.6986220e-02   4.5961250e-02   4.5013090e-02   4.4203288e-02   4.3591320e-02   4.3228561e-02   4.3152463e-02   4.3381677e-02   4.3912855e-02   4.4719607e-02   4.5777351e-02   4.6986182e-02   4.8284004e-02   4.9588932e-02   5.0821386e-02   5.1911074e-02   5.2802739e-02   5.3460024e-02   5.3867041e-02   5.4000000e-02   5.3961891e-02   5.3702532e-02   5.3288530e-02   5.2760406e-02   5.2156062e-02   5.1508575e-02   5.0846199e-02   5.0194357e-02   4.9578874e-02   4.9030908e-02   4.8582636e-02   4.8274817e-02   4.8147607e-02   4.8234525e-02   4.8553322e-02   4.9096874e-02   4.9826495e-02   5.0670063e-02   5.1526656e-02   5.2270184e-02   5.2777063e-02   5.2932805e-02   5.2651628e-02   5.1888764e-02   5.0646513e-02   4.8973113e-02   4.6955011e-02   4.4704443e-02   4.2344992e-02   3.9997906e-02   3.7771389e-02   3.5754097e-02   3.4012960e-02   3.2594517e-02   3.1528361e-02   3.0831229e-02   3.0510503e-02   3.0566585e-02   3.0993395e-02   3.1778966e-02   3.2904584e-02   3.4344631e-02   3.6066933e-02   3.8033811e-02   4.0203685e-02   4.2532907e-02   4.4977451e-02   4.7494143e-02   5.0041283e-02   5.2578681e-02   5.4000000e-02   5.4000000e-02   5.4000000e-02   5.4000000e-02   5.4000000e-02   5.4000000e-02   5.4000000e-02   5.4000000e-02   5.4000000e-02   5.4000000e-02   5.4000000e-02   5.4000000e-02   5.4000000e-02   5.4000000e-02   5.4000000e-02   5.4000000e-02   5.4000000e-02   5.4000000e-02   5.4000000e-02   5.4000000e-02   5.4000000e-02   5.4000000e-02   5.4000000e-02   5.4000000e-02   5.4000000e-02   5.4000000e-02   5.4000000e-02   5.4000000e-02   5.4000000e-02   5.4000000e-02   5.4000000e-02   5.4000000e-02   5.4000000e-02   5.4000000e-02   5.4000000e-02   5.4000000e-02   5.4000000e-02   5.3388456e-02   5.2554855e-02   5.2044873e-02   5.1877449e-02   5.2015029e-02   5.2368934e-02   5.2814714e-02   5.3214623e-02   5.3442673e-02   5.3407169e-02   5.3071230e-02   5.2436828e-02   5.1575158e-02   5.0587153e-02   4.9591487e-02   4.8704086e-02   4.8020321e-02   4.7602995e-02   4.7476299e-02   4.7628880e-02   4.8019959e-02   4.8589734e-02   4.9270331e-02   4.9995537e-02   5.0707975e-02   5.1363208e-02   5.1930889e-02   5.2393578e-02   5.2744064e-02   5.2982028e-02   5.3110770e-02   5.3134469e-02   5.3056262e-02   5.2877201e-02   5.2596046e-02   5.2209753e-02   5.1749033e-02   5.1127075e-02   5.0397534e-02   4.9560686e-02   4.8622521e-02   4.7595515e-02   4.6498999e-02   4.5359002e-02   4.4207514e-02   4.3081145e-02   4.2019258e-02   4.1061678e-02   4.0246184e-02   3.9605995e-02   3.9167484e-02   3.8948363e-02   3.8956489e-02   3.9189420e-02   3.9634758e-02   4.0271202e-02   4.1070220e-02   4.1998137e-02   4.3018434e-02   4.4094054e-02   4.5189512e-02
5.3992367e-02   5.3985714e-02   5.3974327e-02   5.3955491e-02   5.3925308e-02   5.3876991e-02   5.3805350e-02   5.3700235e-02   5.3550281e-02   5.3421041e-02   5.3173849e-02   5.2851124e-02   5.2442288e-02   5.1940102e-02   5.1342683e-02   5.0655505e-02   4.9893104e-02   4.9080134e-02   4.8251456e-02   4.7450995e-02   4.6729271e-02   4.6139660e-02   4.5733674e-02   4.5555739e-02   4.5638065e-02   4.5996276e-02   4.6626422e-02   4.7503836e-02   4.8615040e-02   4.9854670e-02   5.1171274e-02   5.2488966e-02   5.3733356e-02   5.4000000e-02   5.4000000e-02   5.4000000e-02   5.4000000e-02   5.4000000e-02   5.4000000e-02   5.4000000e-02   5.4000000e-02   5.4000000e-02   5.4000000e-02   5.4000000e-02   5.3478838e-02   5.2581634e-02   5.1654570e-02   5.0729371e-02   4.9846689e-02   4.9059322e-02   4.8425297e-02   4.7999862e-02   4.7824245e-02   4.7913984e-02   4.8249630e-02   4.8773949e-02   4.9390301e-02   4.9974323e-02   5.0395372e-02   5.0528572e-02   5.0276101e-02   4.9581935e-02   4.8439806e-02   4.6893052e-02   4.5026816e-02   4.2954591e-02   4.0802103e-02   3.8691740e-02   3.6730205e-02   3.5000971e-02   3.3561884e-02   3.2447088e-02   3.1671747e-02   3.1237774e-02   3.1139063e-02   3.1365452e-02   3.1903829e-02   3.2739890e-02   3.3856689e-02   3.5234069e-02   3.6848137e-02   3.8671321e-02   4.0672982e-02   4.2820396e-02   4.5079774e-02   4.7417031e-02   4.9798118e-02   5.2188902e-02   5.4000000e-02   5.4000000e-02   5.4000000e-02   5.4000000e-02   5.4000000e-02   5.4000000e-02   5.4000000e-02   5.4000000e-02   5.4000000e-02   5.4000000e-02   5.4000000e-02   5.4000000e-02   5.4000000e-02   5.4000000e-02   5.4000000e-02   5.4000000e-02   5.4000000e-02   5.4000000e-02   5.4000000e-02   5.4000000e-02   5.4000000e-02   5.4000000e-02   5.4000000e-02   5.4000000e-02   5.4000000e-02   5.4000000e-02   5.4000000e-02   5.4000000e-02   5.4000000e-02   5.4000000e-02   5.4000000e-02   5.4000000e-02   5.4000000e-02   5.4000000e-02   5.4000000e-02   5.4000000e-02   5.3828058e-02   5.2783061e-02   5.1961521e-02   5.1430180e-02   5.1210801e-02   5.1275012e-02   5.1548555e-02   5.1924427e-02   5.2282421e-02   5.2511121e-02   5.2527844e-02   5.2298964e-02   5.1817549e-02   5.1144704e-02   5.0364782e-02   4.9578116e-02   4.8883246e-02   4.8361411e-02   4.8065686e-02   4.8016849e-02   4.8204345e-02   4.8592515e-02   4.9129373e-02   4.9756090e-02   5.0415422e-02   5.1057923e-02   5.1645483e-02   5.2152292e-02   5.2563784e-02   5.2874280e-02   5.3084063e-02   5.3196522e-02   5.3215765e-02   5.3144942e-02   5.2985347e-02   5.2736238e-02   5.2395263e-02   5.1989897e-02   5.1443592e-02   5.0803980e-02   5.0071342e-02   4.9250874e-02   4.8353363e-02   4.7395508e-02   4.6399811e-02   4.5393964e-02   4.4409713e-02   4.3481274e-02   4.2643359e-02   4.1929019e-02   4.1367445e-02   4.0981971e-02   4.0788449e-02   4.0794164e-02   4.0997395e-02   4.1387649e-02   4.1946542e-02   4.2649217e-02   4.3466159e-02   4.4365211e-02   4.5313613e-02   4.6279890e-02
5.3992477e-02   5.3986421e-02   5.3976266e-02   5.3959737e-02   5.3933598e-02   5.3891812e-02   5.3830734e-02   5.3741758e-02   5.3615569e-02   5.3524137e-02   5.3325303e-02   5.3067170e-02   5.2742000e-02   5.2344950e-02   5.1875714e-02   5.1340142e-02   5.0751632e-02   5.0131980e-02   4.9511434e-02   4.8927742e-02   4.8424086e-02   4.8045948e-02   4.7837133e-02   4.7835315e-02   4.8067614e-02   4.8546755e-02   4.9268328e-02   5.0209600e-02   5.1369292e-02   5.2635984e-02   5.3969981e-02   5.4000000e-02   5.4000000e-02   5.4000000e-02   5.4000000e-02   5.4000000e-02   5.4000000e-02   5.4000000e-02   5.4000000e-02   5.4000000e-02   5.4000000e-02   5.4000000e-02   5.4000000e-02   5.4000000e-02   5.4000000e-02   5.4000000e-02   5.4000000e-02   5.2913669e-02   5.1636707e-02   5.0406078e-02   4.9297197e-02   4.8386602e-02   4.7738593e-02   4.7390998e-02   4.7343274e-02   4.7553219e-02   4.7927724e-02   4.8344182e-02   4.8665212e-02   4.8755973e-02   4.8507328e-02   4.7853041e-02   4.6779612e-02   4.5327051e-02   4.3580898e-02   4.1657596e-02   3.9686547e-02   3.7792506e-02   3.6081455e-02   3.4631920e-02   3.3492288e-02   3.2683322e-02   3.2204186e-02   3.2039933e-02   3.2168615e-02   3.2567080e-02   3.3212680e-02   3.4086821e-02   3.5172833e-02   3.6455232e-02   3.7918420e-02   3.9545739e-02   4.1319020e-02   4.3218549e-02   4.5223215e-02   4.7310586e-02   4.9456741e-02   5.1635818e-02   5.3847361e-02   5.4000000e-02   5.4000000e-02   5.4000000e-02   5.4000000e-02   5.4000000e-02   5.4000000e-02   5.4000000e-02   5.4000000e-02   5.4000000e-02   5.4000000e-02   5.4000000e-02   5.4000000e-02   5.4000000e-02   5.4000000e-02   5.4000000e-02   5.4000000e-02   5.4000000e-02   5.4000000e-02   5.4000000e-02   5.4000000e-02   5.4000000e-02   5.4000000e-02   5.4000000e-02   5.4000000e-02   5.4000000e-02   5.4000000e-02   5.4000000e-02   5.4000000e-02   5.4000000e-02   5.4000000e-02   5.4000000e-02   5.4000000e-02   5.4000000e-02   5.4000000e-02   5.3903699e-02   5.2756544e-02   5.1714744e-02   5.0870487e-02   5.0288998e-02   4.9996574e-02   4.9975414e-02   5.0166626e-02   5.0481055e-02   5.0815845e-02   5.1073367e-02   5.1178620e-02   5.1099729e-02   5.0818207e-02   5.0383275e-02   4.9860597e-02   4.9330271e-02   4.8871904e-02   4.8551478e-02   4.8411821e-02   4.8469791e-02   4.8715853e-02   4.9119871e-02   4.9638269e-02   5.0221958e-02   5.0823387e-02   5.1401731e-02   5.1925818e-02   5.2374896e-02   5.2737684e-02   5.3010346e-02   5.3193991e-02   5.3292237e-02   5.3309197e-02   5.3248059e-02   5.3110346e-02   5.2895768e-02   5.2602606e-02   5.2254997e-02   5.1786679e-02   5.1239163e-02   5.0612716e-02   4.9911752e-02   4.9145399e-02   4.8327789e-02   4.7477974e-02   4.6619420e-02   4.5779072e-02   4.4986019e-02   4.4269844e-02   4.3658786e-02   4.3177882e-02   4.2847243e-02   4.2680655e-02   4.2684617e-02   4.2857934e-02   4.3191873e-02   4.3670891e-02   4.4273816e-02   4.4975389e-02   4.5747990e-02   4.6563396e-02   4.7394423e-02
5.3993257e-02   5.3988080e-02   5.3979512e-02   5.3965718e-02   5.3944099e-02   5.3909355e-02   5.3859244e-02   5.3786599e-02   5.3683982e-02   5.3628558e-02   5.3475951e-02   5.3278924e-02   5.3032236e-02   5.2733117e-02   5.2382577e-02   5.1986701e-02   5.1557742e-02   5.1114796e-02   5.0683832e-02   5.0296899e-02   4.9990436e-02   4.9802695e-02   4.9770438e-02   4.9925219e-02   5.0289628e-02   5.0873951e-02   5.1673706e-02   5.2668413e-02   5.3869766e-02   5.4000000e-02   5.4000000e-02   5.4000000e-02   5.4000000e-02   5.4000000e-02   5.4000000e-02   5.4000000e-02   5.4000000e-02   5.4000000e-02   5.4000000e-02   5.4000000e-02   5.4000000e-02   5.4000000e-02   5.4000000e-02   5.4000000e-02   5.4000000e-02   5.4000000e-02   5.4000000e-02   5.4000000e-02   5.3857210e-02   5.2234719e-02   5.0699642e-02   4.9348684e-02   4.8268011e-02   4.7516521e-02   4.7111446e-02   4.7025163e-02   4.7166768e-02   4.7415281e-02   4.7626850e-02   4.7657223e-02   4.7386896e-02   4.6740710e-02   4.5699479e-02   4.4301582e-02   4.2634700e-02   4.0819913e-02   3.8991827e-02   3.7278845e-02   3.5787188e-02   3.4591018e-02   3.3729430e-02   3.3209529e-02   3.3013777e-02   3.3109275e-02   3.3456820e-02   3.4018736e-02   3.4760974e-02   3.5659183e-02   3.6695638e-02   3.7858592e-02   3.9140300e-02   4.0535120e-02   4.2037975e-02   4.3643239e-02   4.5343890e-02   4.7130761e-02   4.8991718e-02   5.0910742e-02   5.2899059e-02   5.4000000e-02   5.4000000e-02   5.4000000e-02   5.4000000e-02   5.4000000e-02   5.4000000e-02   5.4000000e-02   5.4000000e-02   5.4000000e-02   5.4000000e-02   5.4000000e-02   5.4000000e-02   5.4000000e-02   5.4000000e-02   5.4000000e-02   5.4000000e-02   5.4000000e-02   5.4000000e-02   5.4000000e-02   5.4000000e-02   5.4000000e-02   5.4000000e-02   5.4000000e-02   5.4000000e-02   5.4000000e-02   5.4000000e-02   5.4000000e-02   5.4000000e-02   5.4000000e-02   5.4000000e-02   5.4000000e-02   5.4000000e-02   5.4000000e-02   5.3615428e-02   5.2451845e-02   5.1280504e-02   5.0197376e-02   4.9290650e-02   4.8626322e-02   4.8237116e-02   4.8117134e-02   4.8223509e-02   4.8484882e-02   4.8815026e-02   4.9128811e-02   4.9357222e-02   4.9468473e-02   4.9429913e-02   4.9277379e-02   4.9056167e-02   4.8824761e-02   4.8642779e-02   4.8560212e-02   4.8609328e-02   4.8802709e-02   4.9131947e-02   4.9572616e-02   5.0089847e-02   5.0644656e-02   5.1199589e-02   5.1722853e-02   5.2190614e-02   5.2587543e-02   5.2905974e-02   5.3144185e-02   5.3304323e-02   5.3390397e-02   5.3406617e-02   5.3356258e-02   5.3241063e-02   5.3061161e-02   5.2815402e-02   5.2524646e-02   5.2132536e-02   5.1674632e-02   5.1151176e-02   5.0565834e-02   4.9926176e-02   4.9243913e-02   4.8534838e-02   4.7818422e-02   4.7117049e-02   4.6454916e-02   4.5856677e-02   4.5345916e-02   4.4943601e-02   4.4666645e-02   4.4526715e-02   4.4529423e-02   4.4673947e-02   4.4953151e-02   4.5354161e-02   4.5859339e-02   4.6447566e-02   4.7095680e-02   4.7779961e-02   4.8477515e-02
5.3994346e-02   5.3990139e-02   5.3983237e-02   5.3972209e-02   5.3955036e-02   5.3927129e-02   5.3887404e-02   5.3829994e-02   5.3749099e-02   5.3725707e-02   5.3614569e-02   5.3471967e-02   5.3294742e-02   5.3081825e-02   5.2835253e-02   5.2561179e-02   5.2270724e-02   5.1980493e-02   5.1712588e-02   5.1493974e-02   5.1355117e-02   5.1327904e-02   5.1442963e-02   5.1726602e-02   5.2197663e-02   5.2864660e-02   5.3723560e-02   5.4000000e-02   5.4000000e-02   5.4000000e-02   5.4000000e-02   5.4000000e-02   5.4000000e-02   5.4000000e-02   5.4000000e-02   5.4000000e-02   5.4000000e-02   5.4000000e-02   5.4000000e-02   5.4000000e-02   5.4000000e-02   5.4000000e-02   5.4000000e-02   5.4000000e-02   5.4000000e-02   5.4000000e-02   5.4000000e-02   5.4000000e-02   5.4000000e-02   5.4000000e-02   5.2505567e-02   5.0769921e-02   4.9307454e-02   4.8196356e-02   4.7470026e-02   4.7114692e-02   4.7040075e-02   4.7126790e-02   4.7224918e-02   4.7181568e-02   4.6868016e-02   4.6201560e-02   4.5158812e-02   4.3777994e-02   4.2150314e-02   4.0402746e-02   3.8676221e-02   3.7103780e-02   3.5792751e-02   3.4813678e-02   3.4196959e-02   3.3936464e-02   3.3998138e-02   3.4331043e-02   3.4878346e-02   3.5587289e-02   3.6411283e-02   3.7319332e-02   3.8291574e-02   3.9318998e-02   4.0400910e-02   4.1542163e-02   4.2750587e-02   4.4034795e-02   4.5402324e-02   4.6857980e-02   4.8402295e-02   5.0030052e-02   5.1764966e-02   5.3554236e-02   5.4000000e-02   5.4000000e-02   5.4000000e-02   5.4000000e-02   5.4000000e-02   5.4000000e-02   5.4000000e-02   5.4000000e-02   5.4000000e-02   5.4000000e-02   5.4000000e-02   5.4000000e-02   5.4000000e-02   5.4000000e-02   5.4000000e-02   5.4000000e-02   5.4000000e-02   5.4000000e-02   5.4000000e-02   5.4000000e-02   5.4000000e-02   5.4000000e-02   5.4000000e-02   5.4000000e-02   5.4000000e-02   5.4000000e-02   5.4000000e-02   5.4000000e-02   5.4000000e-02   5.4000000e-02   5.4000000e-02   5.3058404e-02   5.1938564e-02   5.0717635e-02   4.9478603e-02   4.8312892e-02   4.7307223e-02   4.6530589e-02   4.6023832e-02   4.5793940e-02   4.5814275e-02   4.6030740e-02   4.6372582e-02   4.6765590e-02   4.7144965e-02   4.7477526e-02   4.7714244e-02   4.7876694e-02   4.7988860e-02   4.8086974e-02   4.8210294e-02   4.8392619e-02   4.8655637e-02   4.9007488e-02   4.9440903e-02   4.9937133e-02   5.0469986e-02   5.1010585e-02   5.1531605e-02   5.2010367e-02   5.2430505e-02   5.2782279e-02   5.3061821e-02   5.3269713e-02   5.3409314e-02   5.3485157e-02   5.3501648e-02   5.3462191e-02   5.3368756e-02   5.3221848e-02   5.3020823e-02   5.2783450e-02   5.2462583e-02   5.2088208e-02   5.1660537e-02   5.1182551e-02   5.0660397e-02   5.0103579e-02   4.9524921e-02   4.8940241e-02   4.8367740e-02   4.7827119e-02   4.7338476e-02   4.6921074e-02   4.6592073e-02   4.6365360e-02   4.6250566e-02   4.6252389e-02   4.6370276e-02   4.6598498e-02   4.6926610e-02   4.7340240e-02   4.7822120e-02   4.8353277e-02   4.8914241e-02   4.9486191e-02
5.3995503e-02   5.3992226e-02   5.3986887e-02   5.3978402e-02   5.3965250e-02   5.3943551e-02   5.3913036e-02   5.3869003e-02   5.3807020e-02   5.3810453e-02   5.3734576e-02   5.3637980e-02   5.3519160e-02   5.3378349e-02   5.3218305e-02   5.3045071e-02   5.2868635e-02   5.2703317e-02   5.2567778e-02   5.2484526e-02   5.2478853e-02   5.2577198e-02   5.2805014e-02   5.3184298e-02   5.3730994e-02   5.4000000e-02   5.4000000e-02   5.4000000e-02   5.4000000e-02   5.4000000e-02   5.4000000e-02   5.4000000e-02   5.4000000e-02   5.4000000e-02   5.4000000e-02   5.4000000e-02   5.4000000e-02   5.4000000e-02   5.4000000e-02   5.4000000e-02   5.4000000e-02   5.4000000e-02   5.4000000e-02   5.4000000e-02   5.4000000e-02   5.4000000e-02   5.4000000e-02   5.4000000e-02   5.4000000e-02   5.4000000e-02   5.4000000e-02   5.2479471e-02   5.0691777e-02   4.9271132e-02   4.8265282e-02   4.7673560e-02   4.7404771e-02   4.7341399e-02   4.7328158e-02   4.7204598e-02   4.6834103e-02   4.6127801e-02   4.5059335e-02   4.3667767e-02   4.2048551e-02   4.0335067e-02   3.8674972e-02   3.7206358e-02   3.6038198e-02   3.5238133e-02   3.4828762e-02   3.4791723e-02   3.5077460e-02   3.5617884e-02   3.6339164e-02   3.7173890e-02   3.8062524e-02   3.8967166e-02   3.9865042e-02   4.0748908e-02   4.1624073e-02   4.2504892e-02   4.3411261e-02   4.4365429e-02   4.5389152e-02   4.6501154e-02   4.7714823e-02   4.9036139e-02   5.0501522e-02   5.2056035e-02   5.3611576e-02   5.4000000e-02   5.4000000e-02   5.4000000e-02   5.4000000e-02   5.4000000e-02   5.4000000e-02   5.4000000e-02   5.4000000e-02   5.4000000e-02   5.4000000e-02   5.4000000e-02   5.4000000e-02   5.4000000e-02   5.4000000e-02   5.4000000e-02   5.4000000e-02   5.4000000e-02   5.4000000e-02   5.4000000e-02   5.4000000e-02   5.4000000e-02   5.4000000e-02   5.4000000e-02   5.4000000e-02   5.4000000e-02   5.4000000e-02   5.4000000e-02   5.3822389e-02   5.3199461e-02   5.2367719e-02   5.1334066e-02   5.0132782e-02   4.8823609e-02   4.7485739e-02   4.6208296e-02   4.5078650e-02   4.4170506e-02   4.3533922e-02   4.3189129e-02   4.3125327e-02   4.3304643e-02   4.3670330e-02   4.4157460e-02   4.4703889e-02   4.5274063e-02   4.5801118e-02   4.6292406e-02   4.6750639e-02   4.7190135e-02   4.7630250e-02   4.8089044e-02   4.8577984e-02   4.9100813e-02   4.9651349e-02   5.0216264e-02   5.0777686e-02   5.1316445e-02   5.1814983e-02   5.2259446e-02   5.2640749e-02   5.2954656e-02   5.3201099e-02   5.3383026e-02   5.3505095e-02   5.3572454e-02   5.3589774e-02   5.3560623e-02   5.3487187e-02   5.3370308e-02   5.3209779e-02   5.3020554e-02   5.2763779e-02   5.2464398e-02   5.2122586e-02   5.1740719e-02   5.1323684e-02   5.0879038e-02   5.0416977e-02   4.9950089e-02   4.9492864e-02   4.9061004e-02   4.8670544e-02   4.8336874e-02   4.8073732e-02   4.7892257e-02   4.7800210e-02   4.7801420e-02   4.7895517e-02   4.8077991e-02   4.8340540e-02   4.8671697e-02   4.9057659e-02   4.9483226e-02   4.9932781e-02   5.0391207e-02
5.3996577e-02   5.3994122e-02   5.3990139e-02   5.3983836e-02   5.3974100e-02   5.3957803e-02   5.3935057e-02   5.3902228e-02   5.3855986e-02   5.3880621e-02   5.3833347e-02   5.3773867e-02   5.3701904e-02   5.3618607e-02   5.3527142e-02   5.3433259e-02   5.3345783e-02   5.3276916e-02   5.3242241e-02   5.3260366e-02   5.3352122e-02   5.3539320e-02   5.3843105e-02   5.4000000e-02   5.4000000e-02   5.4000000e-02   5.4000000e-02   5.4000000e-02   5.4000000e-02   5.4000000e-02   5.4000000e-02   5.4000000e-02   5.4000000e-02   5.4000000e-02   5.4000000e-02   5.4000000e-02   5.4000000e-02   5.4000000e-02   5.4000000e-02   5.4000000e-02   5.4000000e-02   5.4000000e-02   5.4000000e-02   5.4000000e-02   5.4000000e-02   5.4000000e-02   5.4000000e-02   5.4000000e-02   5.4000000e-02   5.4000000e-02   5.4000000e-02   5.4000000e-02   5.2223380e-02   5.0546032e-02   4.9305442e-02   4.8513433e-02   4.8076559e-02   4.7879867e-02   4.7763810e-02   4.7561805e-02   4.7130870e-02   4.6377289e-02   4.5272645e-02   4.3857231e-02   4.2230676e-02   4.0532371e-02   3.8916219e-02   3.7525049e-02   3.6469529e-02   3.5814939e-02   3.5577124e-02   3.5726953e-02   3.6201075e-02   3.6915984e-02   3.7782393e-02   3.8719568e-02   3.9655273e-02   4.0545060e-02   4.1362814e-02   4.2102188e-02   4.2773335e-02   4.3398796e-02   4.4009227e-02   4.4639335e-02   4.5324147e-02   4.6095636e-02   4.6979678e-02   4.7993357e-02   4.9185462e-02   5.0499832e-02   5.1859722e-02   5.3306676e-02   5.4000000e-02   5.4000000e-02   5.4000000e-02   5.4000000e-02   5.4000000e-02   5.4000000e-02   5.4000000e-02   5.4000000e-02   5.4000000e-02   5.4000000e-02   5.4000000e-02   5.4000000e-02   5.4000000e-02   5.4000000e-02   5.4000000e-02   5.4000000e-02   5.4000000e-02   5.4000000e-02   5.4000000e-02   5.4000000e-02   5.4000000e-02   5.3858087e-02   5.3659657e-02   5.3466127e-02   5.3221987e-02   5.2871077e-02   5.2363229e-02   5.1661232e-02   5.0747227e-02   4.9627446e-02   4.8334285e-02   4.6924933e-02   4.5476330e-02   4.4076852e-02   4.2815835e-02   4.1772550e-02   4.1006490e-02   4.0550661e-02   4.0409022e-02   4.0558421e-02   4.0954463e-02   4.1539987e-02   4.2254413e-02   4.3059575e-02   4.3870332e-02   4.4680955e-02   4.5474083e-02   4.6243534e-02   4.6990150e-02   4.7717393e-02   4.8427295e-02   4.9119477e-02   4.9788751e-02   5.0426750e-02   5.1023235e-02   5.1567962e-02   5.2052374e-02   5.2470774e-02   5.2820839e-02   5.3103481e-02   5.3322218e-02   5.3482269e-02   5.3589573e-02   5.3649910e-02   5.3668239e-02   5.3648300e-02   5.3592474e-02   5.3501889e-02   5.3376704e-02   5.3229380e-02   5.3028325e-02   5.2794043e-02   5.2526676e-02   5.2228078e-02   5.1902056e-02   5.1554494e-02   5.1193337e-02   5.0828394e-02   5.0470966e-02   5.0133306e-02   4.9827939e-02   4.9566902e-02   4.9360950e-02   4.9218826e-02   4.9146639e-02   4.9147429e-02   4.9220957e-02   4.9363732e-02   4.9569293e-02   4.9828684e-02   5.0131104e-02   5.0464643e-02   5.0817048e-02   5.1176450e-02
5.3997495e-02   5.3995718e-02   5.3992845e-02   5.3988314e-02   5.3981334e-02   5.3969647e-02   5.3953219e-02   5.3929449e-02   5.3895863e-02   5.3936285e-02   5.3911280e-02   5.3880516e-02   5.3844559e-02   5.3805119e-02   5.3765475e-02   5.3730891e-02   5.3708974e-02   5.3709904e-02   5.3746453e-02   5.3833746e-02   5.3988702e-02   5.4000000e-02   5.4000000e-02   5.4000000e-02   5.4000000e-02   5.4000000e-02   5.4000000e-02   5.4000000e-02   5.4000000e-02   5.4000000e-02   5.4000000e-02   5.4000000e-02   5.4000000e-02   5.4000000e-02   5.4000000e-02   5.4000000e-02   5.4000000e-02   5.4000000e-02   5.4000000e-02   5.4000000e-02   5.4000000e-02   5.4000000e-02   5.4000000e-02   5.4000000e-02   5.4000000e-02   5.4000000e-02   5.4000000e-02   5.4000000e-02   5.4000000e-02   5.4000000e-02   5.4000000e-02   5.4000000e-02   5.3793646e-02   5.1945644e-02   5.0553374e-02   4.9640306e-02   4.9109062e-02   4.8847479e-02   4.8692139e-02   4.8470794e-02   4.8034352e-02   4.7283999e-02   4.6188323e-02   4.4787234e-02   4.3182425e-02   4.1517018e-02   3.9949123e-02   3.8624899e-02   3.7656262e-02   3.7106810e-02   3.6987441e-02   3.7261032e-02   3.7853885e-02   3.8670831e-02   3.9610806e-02   4.0583217e-02   4.1505227e-02   4.2327906e-02   4.3022660e-02   4.3584100e-02   4.4026582e-02   4.4379696e-02   4.4683406e-02   4.4983303e-02   4.5326154e-02   4.5755820e-02   4.6309541e-02   4.7014676e-02   4.7931174e-02   4.9002356e-02   5.0163056e-02   5.1455113e-02   5.2831582e-02   5.4000000e-02   5.4000000e-02   5.4000000e-02   5.4000000e-02   5.4000000e-02   5.4000000e-02   5.4000000e-02   5.4000000e-02   5.4000000e-02   5.4000000e-02   5.4000000e-02   5.4000000e-02   5.4000000e-02   5.4000000e-02   5.4000000e-02   5.4000000e-02   5.4000000e-02   5.3765667e-02   5.3316419e-02   5.2973186e-02   5.2710449e-02   5.2489689e-02   5.2262403e-02   5.1974391e-02   5.1571200e-02   5.1004384e-02   5.0238040e-02   4.9254810e-02   4.8060423e-02   4.6685867e-02   4.5186490e-02   4.3637758e-02   4.2127954e-02   4.0748691e-02   3.9584610e-02   3.8703848e-02   3.8150835e-02   3.7942531e-02   3.8068603e-02   3.8495275e-02   3.9171921e-02   4.0039022e-02   4.1056413e-02   4.2121353e-02   4.3217299e-02   4.4309178e-02   4.5372780e-02   4.6392706e-02   4.7359631e-02   4.8267347e-02   4.9111843e-02   4.9888808e-02   5.0594206e-02   5.1224468e-02   5.1777149e-02   5.2251561e-02   5.2649153e-02   5.2973531e-02   5.3230130e-02   5.3425637e-02   5.3567281e-02   5.3662143e-02   5.3716574e-02   5.3735789e-02   5.3723671e-02   5.3682758e-02   5.3614404e-02   5.3519061e-02   5.3407030e-02   5.3252925e-02   5.3073435e-02   5.2868673e-02   5.2640054e-02   5.2390485e-02   5.2124456e-02   5.1848032e-02   5.1568702e-02   5.1295101e-02   5.1036593e-02   5.0802762e-02   5.0602822e-02   5.0445020e-02   5.0336067e-02   5.0280667e-02   5.0281176e-02   5.0337439e-02   5.0446811e-02   5.0604360e-02   5.0803237e-02   5.1035167e-02   5.1291016e-02   5.1561377e-02   5.1837133e-02
5.3998230e-02   5.3996985e-02   5.3994979e-02   5.3991821e-02   5.3986967e-02   5.3979243e-02   5.3967840e-02   5.3951234e-02   5.3927608e-02   5.3979042e-02   5.3970803e-02   5.3961489e-02   5.3952180e-02   5.3944838e-02   5.3942592e-02   5.3950033e-02   5.3973464e-02   5.4000000e-02   5.4000000e-02   5.4000000e-02   5.4000000e-02   5.4000000e-02   5.4000000e-02   5.4000000e-02   5.4000000e-02   5.4000000e-02   5.4000000e-02   5.4000000e-02   5.4000000e-02   5.4000000e-02   5.4000000e-02   5.4000000e-02   5.4000000e-02   5.4000000e-02   5.4000000e-02   5.4000000e-02   5.4000000e-02   5.4000000e-02   5.4000000e-02   5.4000000e-02   5.4000000e-02   5.4000000e-02   5.4000000e-02   5.4000000e-02   5.4000000e-02   5.4000000e-02   5.4000000e-02   5.4000000e-02   5.4000000e-02   5.4000000e-02   5.4000000e-02   5.4000000e-02   5.4000000e-02   5.3108903e-02   5.1593529e-02   5.0577513e-02   4.9959061e-02   4.9630734e-02   4.9427773e-02   4.9175197e-02   4.8720654e-02   4.7962525e-02   4.6867792e-02   4.5476332e-02   4.3891294e-02   4.2258243e-02   4.0737919e-02   3.9478375e-02   3.8591836e-02   3.8140014e-02   3.8129461e-02   3.8516369e-02   3.9218492e-02   4.0130998e-02   4.1142927e-02   4.2155573e-02   4.3075844e-02   4.3850942e-02   4.4449359e-02   4.4865633e-02   4.5116859e-02   4.5237934e-02   4.5276303e-02   4.5286690e-02   4.5326064e-02   4.5448926e-02   4.5702988e-02   4.6125335e-02   4.6786066e-02   4.7629405e-02   4.8602031e-02   4.9745761e-02   5.1014248e-02   5.2349746e-02   5.3687060e-02   5.4000000e-02   5.4000000e-02   5.4000000e-02   5.4000000e-02   5.4000000e-02   5.4000000e-02   5.4000000e-02   5.4000000e-02   5.4000000e-02   5.4000000e-02   5.4000000e-02   5.4000000e-02   5.4000000e-02   5.3806783e-02   5.3163142e-02   5.2625419e-02   5.2197342e-02   5.1867301e-02   5.1609145e-02   5.1384147e-02   5.1144131e-02   5.0835740e-02   5.0405708e-02   4.9806823e-02   4.9004096e-02   4.7980428e-02   4.6740969e-02   4.5315360e-02   4.3757203e-02   4.2140483e-02   4.0553110e-02   3.9088276e-02   3.7834763e-02   3.6867610e-02   3.6240520e-02   3.5981126e-02   3.6089724e-02   3.6541459e-02   3.7291337e-02   3.8281020e-02   3.9469747e-02   4.0738901e-02   4.2064364e-02   4.3396701e-02   4.4697033e-02   4.5936719e-02   4.7096005e-02   4.8161971e-02   4.9127647e-02   4.9989473e-02   5.0746993e-02   5.1402131e-02   5.1958853e-02   5.2422934e-02   5.2801677e-02   5.3103533e-02   5.3337624e-02   5.3513198e-02   5.3639097e-02   5.3723299e-02   5.3772579e-02   5.3792329e-02   5.3786511e-02   5.3757764e-02   5.3707600e-02   5.3636687e-02   5.3553492e-02   5.3437817e-02   5.3303138e-02   5.3149542e-02   5.2978089e-02   5.2790953e-02   5.2591492e-02   5.2384244e-02   5.2174813e-02   5.1969662e-02   5.1775805e-02   5.1600425e-02   5.1450432e-02   5.1332016e-02   5.1250223e-02   5.1208595e-02   5.1208918e-02   5.1251093e-02   5.1333152e-02   5.1451406e-02   5.1600724e-02   5.1774896e-02   5.1967063e-02   5.2170156e-02   5.2377317e-02
5.3998790e-02   5.3997944e-02   5.3996585e-02   5.3994448e-02   5.3991171e-02   5.3986984e-02   5.3979565e-02   5.3968610e-02   5.3952802e-02   5.4000000e-02   5.4000000e-02   5.4000000e-02   5.4000000e-02   5.4000000e-02   5.4000000e-02   5.4000000e-02   5.4000000e-02   5.4000000e-02   5.4000000e-02   5.4000000e-02   5.4000000e-02   5.4000000e-02   5.4000000e-02   5.4000000e-02   5.4000000e-02   5.4000000e-02   5.4000000e-02   5.4000000e-02   5.4000000e-02   5.4000000e-02   5.4000000e-02   5.4000000e-02   5.4000000e-02   5.4000000e-02   5.4000000e-02   5.4000000e-02   5.4000000e-02   5.4000000e-02   5.4000000e-02   5.4000000e-02   5.4000000e-02   5.4000000e-02   5.4000000e-02   5.4000000e-02   5.4000000e-02   5.4000000e-02   5.4000000e-02   5.4000000e-02   5.4000000e-02   5.4000000e-02   5.4000000e-02   5.4000000e-02   5.4000000e-02   5.3990677e-02   5.2411130e-02   5.1344157e-02   5.0682733e-02   5.0325537e-02   5.0108360e-02   4.9855633e-02   4.9413664e-02   4.8679223e-02   4.7617858e-02   4.6268465e-02   4.4733759e-02   4.3159283e-02   4.1705863e-02   4.0521339e-02   3.9716995e-02   3.9352520e-02   3.9431167e-02   3.9904534e-02   4.0684675e-02   4.1660317e-02   4.2713809e-02   4.3741426e-02   4.4641339e-02   4.5358657e-02   4.5859455e-02   4.6137902e-02   4.6212869e-02   4.6123120e-02   4.5921850e-02   4.5671089e-02   4.5436238e-02   4.5280856e-02   4.5261809e-02   4.5424895e-02   4.5848770e-02   4.6479824e-02   4.7276102e-02   4.8278800e-02   4.9442387e-02   5.0708021e-02   5.2007727e-02   5.3269635e-02   5.4000000e-02   5.4000000e-02   5.4000000e-02   5.4000000e-02   5.4000000e-02   5.4000000e-02   5.4000000e-02   5.4000000e-02   5.4000000e-02   5.4000000e-02   5.4000000e-02   5.3348866e-02   5.2651052e-02   5.2038388e-02   5.1529336e-02   5.1127080e-02   5.0819366e-02   5.0579518e-02   5.0368583e-02   5.0138574e-02   4.9836739e-02   4.9410695e-02   4.8814136e-02   4.8012665e-02   4.6989157e-02   4.5747915e-02   4.4316928e-02   4.2747625e-02   4.1111828e-02   3.9496010e-02   3.7993399e-02   3.6694876e-02   3.5679898e-02   3.5008705e-02   3.4716901e-02   3.4813085e-02   3.5279729e-02   3.6076902e-02   3.7148077e-02   3.8453910e-02   3.9862445e-02   4.1345893e-02   4.2844473e-02   4.4308585e-02   4.5699823e-02   4.6990698e-02   4.8163330e-02   4.9208565e-02   5.0123484e-02   5.0910395e-02   5.1575417e-02   5.2127394e-02   5.2576988e-02   5.2935897e-02   5.3216181e-02   5.3429663e-02   5.3587428e-02   5.3699428e-02   5.3774211e-02   5.3818777e-02   5.3838563e-02   5.3837531e-02   5.3818343e-02   5.3782598e-02   5.3731109e-02   5.3670798e-02   5.3585734e-02   5.3486726e-02   5.3373838e-02   5.3247849e-02   5.3110352e-02   5.2963812e-02   5.2811554e-02   5.2657689e-02   5.2506960e-02   5.2364515e-02   5.2235629e-02   5.2125381e-02   5.2038322e-02   5.1978167e-02   5.1947529e-02   5.1947731e-02   5.1978711e-02   5.2039032e-02   5.2125989e-02   5.2235814e-02   5.2363944e-02   5.2505331e-02   5.2654773e-02   5.2807217e-02
