5.4000000e-02   5.4000000e-02   5.4000000e-02   5.4000000e-02   5.4000000e-02   5.3998988e-02   5.3998288e-02   5.3997183e-02   5.3995491e-02   5.3992984e-02   5.3989406e-02   5.3984500e-02   5.3978082e-02   5.3970142e-02   5.3961013e-02   5.3951585e-02   5.3943568e-02   5.3939784e-02   5.3944443e-02   5.3963337e-02   5.4000000e-02   5.4000000e-02   5.4000000e-02   5.4000000e-02   5.4000000e-02   5.4000000e-02   5.4000000e-02   5.4000000e-02   5.4000000e-02   5.4000000e-02   5.4000000e-02   5.4000000e-02   5.4000000e-02   5.4000000e-02   5.4000000e-02   5.4000000e-02   5.4000000e-02   5.4000000e-02   5.4000000e-02   5.4000000e-02   5.4000000e-02   5.4000000e-02   5.4000000e-02   5.4000000e-02   5.4000000e-02   5.4000000e-02   5.4000000e-02   5.4000000e-02   5.4000000e-02   5.4000000e-02   5.3841065e-02   5.3584015e-02   5.3363767e-02   5.3182714e-02   5.3047247e-02   5.2968339e-02   5.2961709e-02   5.3047573e-02   5.3249967e-02   5.3595681e-02   5.4000000e-02   5.4000000e-02   5.4000000e-02   5.4000000e-02   5.4000000e-02   5.4000000e-02   5.4000000e-02   5.4000000e-02   5.4000000e-02   5.4000000e-02   5.4000000e-02   5.4000000e-02   5.4000000e-02   5.4000000e-02   5.4000000e-02   5.4000000e-02   5.4000000e-02   5.4000000e-02   5.4000000e-02   5.4000000e-02   5.4000000e-02   5.4000000e-02   5.4000000e-02   5.4000000e-02   5.4000000e-02   5.4000000e-02   5.4000000e-02   5.4000000e-02   5.4000000e-02   5.4000000e-02   5.4000000e-02   5.4000000e-02   5.4000000e-02   5.4000000e-02   5.4000000e-02   5.4000000e-02   5.4000000e-02   5.4000000e-02   5.4000000e-02   5.4000000e-02   5.4000000e-02   5.4000000e-02   5.4000000e-02   5.4000000e-02   5.4000000e-02   5.4000000e-02   5.4000000e-02   5.4000000e-02   5.4000000e-02   5.4000000e-02   5.4000000e-02   5.4000000e-02   5.4000000e-02   5.4000000e-02   5.4000000e-02   5.4000000e-02   5.4000000e-02   5.4000000e-02   5.4000000e-02   5.4000000e-02   5.4000000e-02   5.4000000e-02   5.4000000e-02   5.4000000e-02   5.4000000e-02   5.4000000e-02   5.4000000e-02   5.4000000e-02   5.4000000e-02   5.4000000e-02   5.4000000e-02   5.4000000e-02   5.4000000e-02   5.4000000e-02   5.4000000e-02   5.4000000e-02   5.4000000e-02   5.4000000e-02   5.4000000e-02   5.4000000e-02   5.4000000e-02   5.4000000e-02   5.4000000e-02   5.4000000e-02   5.4000000e-02   5.4000000e-02   5.4000000e-02   5.4000000e-02   5.4000000e-02   5.4000000e-02   5.3391557e-02   5.1679668e-02   5.0552474e-02   5.0045718e-02   5.0132459e-02   5.0747739e-02   5.1783395e-02   5.3102009e-02   5.4000000e-02   5.4000000e-02   5.4000000e-02   5.4000000e-02   5.4000000e-02   5.4000000e-02   5.4000000e-02   5.4000000e-02   5.2765267e-02   4.9490392e-02   4.5577642e-02   4.1176994e-02   3.6486658e-02   3.1744384e-02   2.7185734e-02   2.3061075e-02   1.9582600e-02   1.6911754e-02   1.5145806e-02   1.4309220e-02   1.4357066e-02   1.5185539e-02   1.6648835e-02   1.8578895e-02   2.0804545e-02   2.3167088e-02   2.5530520e-02   2.7785890e-02
5.4000000e-02   5.4000000e-02   5.4000000e-02   5.4000000e-02   5.4000000e-02   5.3998711e-02   5.3997816e-02   5.3996396e-02   5.3994217e-02   5.3990984e-02   5.3986360e-02   5.3980012e-02   5.3971693e-02   5.3961393e-02   5.3949546e-02   5.3937315e-02   5.3926951e-02   5.3922169e-02   5.3928523e-02   5.3953672e-02   5.4000000e-02   5.4000000e-02   5.4000000e-02   5.4000000e-02   5.4000000e-02   5.4000000e-02   5.4000000e-02   5.4000000e-02   5.4000000e-02   5.4000000e-02   5.4000000e-02   5.4000000e-02   5.4000000e-02   5.4000000e-02   5.4000000e-02   5.4000000e-02   5.4000000e-02   5.4000000e-02   5.4000000e-02   5.4000000e-02   5.4000000e-02   5.4000000e-02   5.4000000e-02   5.4000000e-02   5.4000000e-02   5.4000000e-02   5.4000000e-02   5.4000000e-02   5.4000000e-02   5.4000000e-02   5.3943448e-02   5.3611822e-02   5.3320097e-02   5.3066696e-02   5.2854381e-02   5.2691062e-02   5.2590126e-02   5.2570286e-02   5.2654976e-02   5.2871305e-02   5.3249535e-02   5.3817230e-02   5.4000000e-02   5.4000000e-02   5.4000000e-02   5.4000000e-02   5.4000000e-02   5.4000000e-02   5.4000000e-02   5.4000000e-02   5.4000000e-02   5.4000000e-02   5.4000000e-02   5.4000000e-02   5.4000000e-02   5.4000000e-02   5.4000000e-02   5.4000000e-02   5.4000000e-02   5.4000000e-02   5.4000000e-02   5.4000000e-02   5.4000000e-02   5.4000000e-02   5.4000000e-02   5.4000000e-02   5.4000000e-02   5.4000000e-02   5.4000000e-02   5.4000000e-02   5.4000000e-02   5.4000000e-02   5.4000000e-02   5.4000000e-02   5.4000000e-02   5.4000000e-02   5.4000000e-02   5.4000000e-02   5.4000000e-02   5.4000000e-02   5.4000000e-02   5.4000000e-02   5.4000000e-02   5.4000000e-02   5.4000000e-02   5.4000000e-02   5.4000000e-02   5.4000000e-02   5.4000000e-02   5.4000000e-02   5.4000000e-02   5.4000000e-02   5.4000000e-02   5.4000000e-02   5.4000000e-02   5.4000000e-02   5.4000000e-02   5.4000000e-02   5.4000000e-02   5.4000000e-02   5.4000000e-02   5.4000000e-02   5.4000000e-02   5.4000000e-02   5.4000000e-02   5.4000000e-02   5.4000000e-02   5.4000000e-02   5.4000000e-02   5.4000000e-02   5.4000000e-02   5.4000000e-02   5.4000000e-02   5.4000000e-02   5.4000000e-02   5.4000000e-02   5.4000000e-02   5.4000000e-02   5.4000000e-02   5.4000000e-02   5.4000000e-02   5.4000000e-02   5.4000000e-02   5.4000000e-02   5.4000000e-02   5.4000000e-02   5.4000000e-02   5.4000000e-02   5.4000000e-02   5.4000000e-02   5.1928553e-02   4.9997871e-02   4.8671012e-02   4.7992402e-02   4.7936231e-02   4.8438445e-02   4.9387339e-02   5.0640172e-02   5.2035199e-02   5.3402843e-02   5.4000000e-02   5.4000000e-02   5.4000000e-02   5.4000000e-02   5.4000000e-02   5.2774008e-02   5.0321932e-02   4.7166221e-02   4.3397645e-02   3.9156080e-02   3.4624459e-02   3.0025734e-02   2.5574474e-02   2.1512643e-02   1.8047536e-02   1.5344353e-02   1.3513415e-02   1.2599435e-02   1.2582306e-02   1.3383580e-02   1.4879182e-02   1.6915628e-02   1.9326964e-02   2.1949874e-02   2.4635135e-02   2.7254627e-02
5.4000000e-02   5.4000000e-02   5.4000000e-02   5.4000000e-02   5.4000000e-02   5.3998408e-02   5.3997290e-02   5.3995511e-02   5.3992770e-02   5.3988688e-02   5.3982827e-02   5.3974750e-02   5.3964120e-02   5.3950895e-02   5.3935586e-02   5.3919633e-02   5.3905858e-02   5.3898960e-02   5.3906008e-02   5.3936799e-02   5.4000000e-02   5.4000000e-02   5.4000000e-02   5.4000000e-02   5.4000000e-02   5.4000000e-02   5.4000000e-02   5.4000000e-02   5.4000000e-02   5.4000000e-02   5.4000000e-02   5.4000000e-02   5.4000000e-02   5.4000000e-02   5.4000000e-02   5.4000000e-02   5.4000000e-02   5.4000000e-02   5.4000000e-02   5.4000000e-02   5.4000000e-02   5.4000000e-02   5.4000000e-02   5.4000000e-02   5.4000000e-02   5.4000000e-02   5.4000000e-02   5.4000000e-02   5.4000000e-02   5.4000000e-02   5.4000000e-02   5.3678841e-02   5.3308848e-02   5.2975814e-02   5.2677786e-02   5.2418569e-02   5.2208248e-02   5.2063180e-02   5.2005482e-02   5.2062038e-02   5.2266165e-02   5.2644049e-02   5.3228934e-02   5.4000000e-02   5.4000000e-02   5.4000000e-02   5.4000000e-02   5.4000000e-02   5.4000000e-02   5.4000000e-02   5.4000000e-02   5.4000000e-02   5.4000000e-02   5.4000000e-02   5.4000000e-02   5.4000000e-02   5.4000000e-02   5.4000000e-02   5.4000000e-02   5.4000000e-02   5.4000000e-02   5.4000000e-02   5.4000000e-02   5.4000000e-02   5.4000000e-02   5.4000000e-02   5.4000000e-02   5.4000000e-02   5.4000000e-02   5.4000000e-02   5.4000000e-02   5.4000000e-02   5.4000000e-02   5.4000000e-02   5.4000000e-02   5.4000000e-02   5.4000000e-02   5.4000000e-02   5.4000000e-02   5.4000000e-02   5.4000000e-02   5.4000000e-02   5.4000000e-02   5.4000000e-02   5.4000000e-02   5.4000000e-02   5.4000000e-02   5.4000000e-02   5.4000000e-02   5.4000000e-02   5.4000000e-02   5.4000000e-02   5.4000000e-02   5.4000000e-02   5.4000000e-02   5.4000000e-02   5.4000000e-02   5.4000000e-02   5.4000000e-02   5.4000000e-02   5.4000000e-02   5.4000000e-02   5.4000000e-02   5.4000000e-02   5.4000000e-02   5.4000000e-02   5.4000000e-02   5.4000000e-02   5.4000000e-02   5.4000000e-02   5.4000000e-02   5.4000000e-02   5.4000000e-02   5.4000000e-02   5.4000000e-02   5.4000000e-02   5.4000000e-02   5.4000000e-02   5.4000000e-02   5.4000000e-02   5.4000000e-02   5.4000000e-02   5.4000000e-02   5.4000000e-02   5.4000000e-02   5.4000000e-02   5.4000000e-02   5.4000000e-02   5.4000000e-02   5.2998082e-02   5.0428637e-02   4.8364861e-02   4.6916655e-02   4.6136799e-02   4.5999952e-02   4.6443679e-02   4.7353490e-02   4.8582449e-02   4.9964576e-02   5.1327268e-02   5.2502172e-02   5.3334133e-02   5.3688368e-02   5.3456285e-02   5.2560434e-02   5.0958964e-02   4.8649603e-02   4.5672819e-02   4.2112876e-02   3.8098365e-02   3.3795814e-02   2.9412138e-02   2.5137288e-02   2.1202637e-02   1.7806887e-02   1.5114929e-02   1.3245667e-02   1.2260082e-02   1.2159680e-02   1.2889499e-02   1.4347106e-02   1.6395520e-02   1.8877908e-02   2.1631891e-02   2.4501693e-02   2.7347076e-02
5.4000000e-02   5.4000000e-02   5.4000000e-02   5.4000000e-02   5.4000000e-02   5.3998101e-02   5.3996745e-02   5.3994576e-02   5.3991214e-02   5.3986178e-02   5.3978904e-02   5.3968811e-02   5.3955432e-02   5.3938632e-02   5.3918945e-02   5.3898033e-02   5.3879252e-02   5.3868295e-02   5.3873815e-02   5.3907906e-02   5.3986280e-02   5.4000000e-02   5.4000000e-02   5.4000000e-02   5.4000000e-02   5.4000000e-02   5.4000000e-02   5.4000000e-02   5.4000000e-02   5.4000000e-02   5.4000000e-02   5.4000000e-02   5.4000000e-02   5.4000000e-02   5.4000000e-02   5.4000000e-02   5.4000000e-02   5.4000000e-02   5.4000000e-02   5.4000000e-02   5.4000000e-02   5.4000000e-02   5.4000000e-02   5.4000000e-02   5.4000000e-02   5.4000000e-02   5.4000000e-02   5.4000000e-02   5.4000000e-02   5.4000000e-02   5.4000000e-02   5.3793172e-02   5.3342603e-02   5.2927178e-02   5.2539182e-02   5.2177293e-02   5.1847343e-02   5.1562487e-02   5.1342806e-02   5.1214407e-02   5.1214075e-02   5.1365323e-02   5.1706589e-02   5.2269918e-02   5.3082579e-02   5.4000000e-02   5.4000000e-02   5.4000000e-02   5.4000000e-02   5.4000000e-02   5.4000000e-02   5.4000000e-02   5.4000000e-02   5.4000000e-02   5.4000000e-02   5.4000000e-02   5.4000000e-02   5.4000000e-02   5.4000000e-02   5.4000000e-02   5.4000000e-02   5.4000000e-02   5.4000000e-02   5.4000000e-02   5.4000000e-02   5.4000000e-02   5.4000000e-02   5.4000000e-02   5.4000000e-02   5.4000000e-02   5.4000000e-02   5.4000000e-02   5.4000000e-02   5.4000000e-02   5.4000000e-02   5.4000000e-02   5.4000000e-02   5.4000000e-02   5.4000000e-02   5.4000000e-02   5.4000000e-02   5.4000000e-02   5.4000000e-02   5.4000000e-02   5.4000000e-02   5.4000000e-02   5.4000000e-02   5.4000000e-02   5.4000000e-02   5.4000000e-02   5.4000000e-02   5.4000000e-02   5.4000000e-02   5.4000000e-02   5.4000000e-02   5.4000000e-02   5.4000000e-02   5.4000000e-02   5.4000000e-02   5.4000000e-02   5.4000000e-02   5.4000000e-02   5.4000000e-02   5.4000000e-02   5.4000000e-02   5.4000000e-02   5.4000000e-02   5.4000000e-02   5.4000000e-02   5.4000000e-02   5.4000000e-02   5.4000000e-02   5.4000000e-02   5.4000000e-02   5.4000000e-02   5.4000000e-02   5.4000000e-02   5.4000000e-02   5.4000000e-02   5.4000000e-02   5.4000000e-02   5.4000000e-02   5.4000000e-02   5.4000000e-02   5.4000000e-02   5.4000000e-02   5.4000000e-02   5.4000000e-02   5.4000000e-02   5.1546932e-02   4.8926091e-02   4.6807259e-02   4.5309753e-02   4.4494276e-02   4.4335009e-02   4.4771663e-02   4.5687482e-02   4.6932266e-02   4.8337088e-02   4.9727903e-02   5.0937295e-02   5.1813821e-02   5.2228985e-02   5.2082247e-02   5.1304609e-02   4.9861314e-02   4.7753972e-02   4.5022091e-02   4.1742982e-02   3.8032597e-02   3.4039457e-02   2.9952652e-02   2.5933167e-02   2.2198977e-02   1.8935895e-02   1.6303941e-02   1.4425893e-02   1.3374931e-02   1.3171059e-02   1.3781203e-02   1.5124846e-02   1.7083826e-02   1.9514696e-02   2.2261864e-02   2.5169852e-02   2.8093450e-02
5.4000000e-02   5.4000000e-02   5.4000000e-02   5.4000000e-02   5.4000000e-02   5.3997826e-02   5.3996239e-02   5.3993676e-02   5.3989671e-02   5.3983620e-02   5.3974803e-02   5.3962450e-02   5.3945895e-02   5.3924827e-02   5.3899692e-02   5.3872245e-02   5.3846245e-02   5.3828251e-02   5.3828417e-02   5.3861122e-02   5.3945250e-02   5.4000000e-02   5.4000000e-02   5.4000000e-02   5.4000000e-02   5.4000000e-02   5.4000000e-02   5.4000000e-02   5.4000000e-02   5.4000000e-02   5.4000000e-02   5.4000000e-02   5.4000000e-02   5.4000000e-02   5.4000000e-02   5.4000000e-02   5.4000000e-02   5.4000000e-02   5.4000000e-02   5.4000000e-02   5.4000000e-02   5.4000000e-02   5.4000000e-02   5.4000000e-02   5.4000000e-02   5.4000000e-02   5.4000000e-02   5.4000000e-02   5.4000000e-02   5.4000000e-02   5.4000000e-02   5.3960466e-02   5.3433258e-02   5.2938887e-02   5.2462931e-02   5.1998022e-02   5.1544876e-02   5.1112658e-02   5.0718743e-02   5.0387929e-02   5.0160997e-02   5.0057300e-02   5.0121169e-02   5.0389434e-02   5.0895423e-02   5.1666507e-02   5.2718628e-02   5.4000000e-02   5.4000000e-02   5.4000000e-02   5.4000000e-02   5.4000000e-02   5.4000000e-02   5.4000000e-02   5.4000000e-02   5.4000000e-02   5.4000000e-02   5.4000000e-02   5.4000000e-02   5.4000000e-02   5.4000000e-02   5.4000000e-02   5.4000000e-02   5.4000000e-02   5.4000000e-02   5.4000000e-02   5.4000000e-02   5.4000000e-02   5.4000000e-02   5.4000000e-02   5.4000000e-02   5.4000000e-02   5.4000000e-02   5.4000000e-02   5.4000000e-02   5.4000000e-02   5.4000000e-02   5.4000000e-02   5.4000000e-02   5.4000000e-02   5.4000000e-02   5.4000000e-02   5.4000000e-02   5.4000000e-02   5.4000000e-02   5.4000000e-02   5.4000000e-02   5.4000000e-02   5.4000000e-02   5.4000000e-02   5.4000000e-02   5.4000000e-02   5.4000000e-02   5.4000000e-02   5.4000000e-02   5.4000000e-02   5.4000000e-02   5.4000000e-02   5.4000000e-02   5.4000000e-02   5.4000000e-02   5.4000000e-02   5.4000000e-02   5.4000000e-02   5.4000000e-02   5.4000000e-02   5.4000000e-02   5.4000000e-02   5.4000000e-02   5.4000000e-02   5.4000000e-02   5.4000000e-02   5.3985848e-02   5.3764232e-02   5.4000000e-02   5.4000000e-02   5.4000000e-02   5.4000000e-02   5.4000000e-02   5.4000000e-02   5.4000000e-02   5.4000000e-02   5.4000000e-02   5.4000000e-02   5.4000000e-02   5.4000000e-02   5.4000000e-02   5.4000000e-02   5.3000000e-02   5.0081799e-02   4.7472488e-02   4.5358846e-02   4.3868591e-02   4.3069899e-02   4.2935271e-02   4.3406851e-02   4.4365782e-02   4.5659184e-02   4.7116148e-02   4.8562504e-02   4.9833362e-02   5.0782732e-02   5.1290173e-02   5.1264846e-02   5.0647602e-02   4.9411822e-02   4.7563592e-02   4.5141526e-02   4.2215573e-02   3.8887734e-02   3.5286745e-02   3.1581837e-02   2.7900359e-02   2.4443761e-02   2.1380391e-02   1.8860607e-02   1.7006332e-02   1.5898888e-02   1.5573804e-02   1.6018470e-02   1.7174733e-02   1.8945670e-02   2.1205484e-02   2.3811094e-02   2.6613935e-02   2.9470646e-02
5.4000000e-02   5.4000000e-02   5.4000000e-02   5.4000000e-02   5.4000000e-02   5.3997642e-02   5.3995861e-02   5.3992949e-02   5.3988342e-02   5.3981297e-02   5.3970903e-02   5.3956151e-02   5.3936086e-02   5.3910098e-02   5.3878375e-02   5.3842544e-02   5.3806502e-02   5.3777380e-02   5.3766531e-02   5.3790356e-02   5.3870734e-02   5.4000000e-02   5.4000000e-02   5.4000000e-02   5.4000000e-02   5.4000000e-02   5.4000000e-02   5.4000000e-02   5.4000000e-02   5.4000000e-02   5.4000000e-02   5.4000000e-02   5.4000000e-02   5.4000000e-02   5.4000000e-02   5.4000000e-02   5.4000000e-02   5.4000000e-02   5.4000000e-02   5.4000000e-02   5.4000000e-02   5.4000000e-02   5.4000000e-02   5.4000000e-02   5.4000000e-02   5.4000000e-02   5.4000000e-02   5.4000000e-02   5.4000000e-02   5.4000000e-02   5.4000000e-02   5.4000000e-02   5.3590633e-02   5.3028421e-02   5.2474183e-02   5.1913764e-02   5.1342049e-02   5.0763554e-02   5.0192367e-02   4.9651499e-02   4.9186370e-02   4.8810545e-02   4.8574955e-02   4.8521507e-02   4.8690114e-02   4.9116393e-02   4.9824025e-02   5.0828665e-02   5.2129971e-02   5.3710988e-02   5.4000000e-02   5.4000000e-02   5.4000000e-02   5.4000000e-02   5.4000000e-02   5.4000000e-02   5.4000000e-02   5.4000000e-02   5.4000000e-02   5.4000000e-02   5.4000000e-02   5.4000000e-02   5.4000000e-02   5.4000000e-02   5.4000000e-02   5.4000000e-02   5.4000000e-02   5.4000000e-02   5.4000000e-02   5.4000000e-02   5.4000000e-02   5.4000000e-02   5.4000000e-02   5.4000000e-02   5.4000000e-02   5.4000000e-02   5.4000000e-02   5.4000000e-02   5.4000000e-02   5.4000000e-02   5.4000000e-02   5.4000000e-02   5.4000000e-02   5.4000000e-02   5.4000000e-02   5.4000000e-02   5.4000000e-02   5.4000000e-02   5.4000000e-02   5.4000000e-02   5.4000000e-02   5.4000000e-02   5.4000000e-02   5.4000000e-02   5.4000000e-02   5.4000000e-02   5.4000000e-02   5.4000000e-02   5.4000000e-02   5.4000000e-02   5.4000000e-02   5.4000000e-02   5.4000000e-02   5.4000000e-02   5.4000000e-02   5.4000000e-02   5.4000000e-02   5.4000000e-02   5.4000000e-02   5.4000000e-02   5.4000000e-02   5.3771967e-02   5.2691205e-02   5.2102541e-02   5.2062188e-02   5.2585165e-02   5.3632386e-02   5.4000000e-02   5.4000000e-02   5.4000000e-02   5.4000000e-02   5.4000000e-02   5.4000000e-02   5.4000000e-02   5.4000000e-02   5.4000000e-02   5.4000000e-02   5.4000000e-02   5.1548450e-02   4.8693196e-02   4.6131107e-02   4.4058215e-02   4.2609863e-02   4.1861293e-02   4.1781903e-02   4.2316280e-02   4.3343205e-02   4.4707239e-02   4.6235976e-02   4.7755986e-02   4.9106105e-02   5.0147248e-02   5.0768619e-02   5.0890676e-02   5.0465598e-02   4.9476130e-02   4.7933687e-02   4.5876377e-02   4.3366638e-02   4.0491562e-02   3.7358513e-02   3.4114967e-02   3.0850160e-02   2.7745919e-02   2.4948638e-02   2.2594302e-02   2.0799392e-02   1.9649430e-02   1.9192593e-02   1.9435338e-02   2.0342223e-02   2.1839738e-02   2.3823579e-02   2.6168332e-02   2.8738277e-02   3.1397998e-02
5.4000000e-02   5.4000000e-02   5.4000000e-02   5.4000000e-02   5.4000000e-02   5.3997634e-02   5.3995745e-02   5.3992597e-02   5.3987527e-02   5.3979642e-02   5.3967810e-02   5.3950719e-02   5.3927027e-02   5.3895662e-02   5.3856318e-02   5.3810172e-02   5.3760844e-02   5.3715536e-02   5.3686236e-02   5.3690789e-02   5.3753549e-02   5.3905278e-02   5.4000000e-02   5.4000000e-02   5.4000000e-02   5.4000000e-02   5.4000000e-02   5.4000000e-02   5.4000000e-02   5.4000000e-02   5.4000000e-02   5.4000000e-02   5.4000000e-02   5.4000000e-02   5.4000000e-02   5.4000000e-02   5.4000000e-02   5.4000000e-02   5.4000000e-02   5.4000000e-02   5.4000000e-02   5.4000000e-02   5.4000000e-02   5.4000000e-02   5.4000000e-02   5.4000000e-02   5.4000000e-02   5.4000000e-02   5.4000000e-02   5.4000000e-02   5.4000000e-02   5.4000000e-02   5.3821144e-02   5.3210854e-02   5.2596615e-02   5.1956977e-02   5.1280489e-02   5.0566533e-02   4.9825465e-02   4.9078125e-02   4.8375301e-02   4.7723071e-02   4.7179651e-02   4.6792222e-02   4.6607665e-02   4.6670611e-02   4.7012720e-02   4.7660650e-02   4.8624086e-02   4.9895499e-02   5.1448356e-02   5.3236486e-02   5.4000000e-02   5.4000000e-02   5.4000000e-02   5.4000000e-02   5.4000000e-02   5.4000000e-02   5.4000000e-02   5.4000000e-02   5.4000000e-02   5.4000000e-02   5.4000000e-02   5.4000000e-02   5.4000000e-02   5.4000000e-02   5.4000000e-02   5.4000000e-02   5.4000000e-02   5.4000000e-02   5.4000000e-02   5.4000000e-02   5.4000000e-02   5.4000000e-02   5.4000000e-02   5.4000000e-02   5.4000000e-02   5.4000000e-02   5.4000000e-02   5.4000000e-02   5.4000000e-02   5.4000000e-02   5.4000000e-02   5.4000000e-02   5.4000000e-02   5.4000000e-02   5.4000000e-02   5.4000000e-02   5.4000000e-02   5.4000000e-02   5.4000000e-02   5.4000000e-02   5.4000000e-02   5.4000000e-02   5.4000000e-02   5.4000000e-02   5.4000000e-02   5.4000000e-02   5.4000000e-02   5.4000000e-02   5.4000000e-02   5.4000000e-02   5.4000000e-02   5.4000000e-02   5.4000000e-02   5.4000000e-02   5.4000000e-02   5.4000000e-02   5.4000000e-02   5.4000000e-02   5.4000000e-02   5.3116893e-02   5.1696332e-02   5.0751125e-02   5.0360981e-02   5.0566200e-02   5.1351474e-02   5.2635672e-02   5.4000000e-02   5.4000000e-02   5.4000000e-02   5.4000000e-02   5.4000000e-02   5.4000000e-02   5.4000000e-02   5.4000000e-02   5.4000000e-02   5.3082900e-02   5.0263557e-02   4.7475032e-02   4.4966568e-02   4.2943163e-02   4.1547274e-02   4.0860862e-02   4.0848607e-02   4.1457264e-02   4.2562550e-02   4.4006074e-02   4.5613852e-02   4.7213485e-02   4.8648199e-02   4.9786809e-02   5.0529414e-02   5.0809183e-02   5.0591086e-02   4.9868625e-02   4.8659741e-02   4.7002882e-02   4.4953382e-02   4.2583115e-02   3.9977109e-02   3.7259722e-02   3.4478328e-02   3.1792420e-02   2.9322390e-02   2.7185490e-02   2.5488471e-02   2.4317260e-02   2.3729814e-02   2.3750082e-02   2.4365295e-02   2.5526911e-02   2.7155139e-02   2.9146400e-02   3.1382682e-02   3.3741534e-02
5.4000000e-02   5.4000000e-02   5.4000000e-02   5.4000000e-02   5.4000000e-02   5.3997912e-02   5.3996068e-02   5.3992898e-02   5.3987649e-02   5.3979276e-02   5.3966405e-02   5.3947369e-02   5.3920327e-02   5.3883558e-02   5.3835965e-02   5.3777855e-02   5.3711998e-02   5.3644948e-02   5.3588479e-02   5.3560953e-02   5.3588270e-02   5.3704035e-02   5.3948527e-02   5.4000000e-02   5.4000000e-02   5.4000000e-02   5.4000000e-02   5.4000000e-02   5.4000000e-02   5.4000000e-02   5.4000000e-02   5.4000000e-02   5.4000000e-02   5.4000000e-02   5.4000000e-02   5.4000000e-02   5.4000000e-02   5.4000000e-02   5.4000000e-02   5.4000000e-02   5.4000000e-02   5.4000000e-02   5.4000000e-02   5.4000000e-02   5.4000000e-02   5.4000000e-02   5.4000000e-02   5.4000000e-02   5.4000000e-02   5.4000000e-02   5.4000000e-02   5.4000000e-02   5.4000000e-02   5.3497115e-02   5.2849987e-02   5.2156408e-02   5.1398336e-02   5.0569747e-02   4.9676980e-02   4.8738437e-02   4.7811063e-02   4.6891757e-02   4.6046648e-02   4.5328277e-02   4.4790707e-02   4.4488206e-02   4.4460235e-02   4.4745471e-02   4.5364268e-02   4.6319212e-02   4.7592630e-02   4.9145285e-02   5.0916534e-02   5.2836408e-02   5.4000000e-02   5.4000000e-02   5.4000000e-02   5.4000000e-02   5.4000000e-02   5.4000000e-02   5.4000000e-02   5.4000000e-02   5.4000000e-02   5.4000000e-02   5.4000000e-02   5.4000000e-02   5.4000000e-02   5.2579271e-02   5.1172281e-02   5.0092930e-02   4.9402957e-02   4.9121726e-02   4.9225703e-02   4.9653368e-02   5.0315005e-02   5.1106086e-02   5.1922393e-02   5.2674749e-02   5.3301271e-02   5.3775423e-02   5.4000000e-02   5.4000000e-02   5.4000000e-02   5.4000000e-02   5.4000000e-02   5.4000000e-02   5.4000000e-02   5.4000000e-02   5.4000000e-02   5.4000000e-02   5.4000000e-02   5.4000000e-02   5.4000000e-02   5.4000000e-02   5.4000000e-02   5.4000000e-02   5.4000000e-02   5.4000000e-02   5.4000000e-02   5.4000000e-02   5.4000000e-02   5.4000000e-02   5.4000000e-02   5.4000000e-02   5.4000000e-02   5.4000000e-02   5.4000000e-02   5.4000000e-02   5.4000000e-02   5.4000000e-02   5.4000000e-02   5.2851436e-02   5.1134297e-02   4.9868794e-02   4.9157185e-02   4.9064571e-02   4.9599382e-02   5.0699719e-02   5.2229598e-02   5.3987540e-02   5.4000000e-02   5.4000000e-02   5.4000000e-02   5.4000000e-02   5.4000000e-02   5.4000000e-02   5.4000000e-02   5.2010006e-02   4.9251449e-02   4.6506385e-02   4.4032410e-02   4.2043586e-02   4.0689167e-02   4.0057512e-02   4.0106819e-02   4.0785497e-02   4.1965081e-02   4.3483365e-02   4.5164143e-02   4.6835735e-02   4.8345816e-02   4.9571544e-02   5.0424723e-02   5.0852373e-02   5.0833648e-02   5.0374370e-02   4.9500603e-02   4.8252612e-02   4.6679813e-02   4.4839523e-02   4.2794443e-02   4.0645339e-02   3.8395186e-02   3.6179123e-02   3.4088216e-02   3.2217194e-02   3.0659178e-02   2.9496855e-02   2.8795002e-02   2.8593113e-02   2.8900395e-02   2.9693906e-02   3.0920239e-02   3.2500516e-02   3.4337922e-02   3.6326676e-02
5.4000000e-02   5.4000000e-02   5.4000000e-02   5.4000000e-02   5.4000000e-02   5.3998618e-02   5.3997061e-02   5.3994215e-02   5.3989264e-02   5.3981028e-02   5.3967896e-02   5.3947804e-02   5.3918311e-02   5.3876851e-02   5.3821207e-02   5.3750311e-02   5.3665379e-02   5.3571392e-02   5.3478783e-02   5.3405146e-02   5.3376588e-02   5.3428296e-02   5.3603843e-02   5.3952789e-02   5.4000000e-02   5.4000000e-02   5.4000000e-02   5.4000000e-02   5.4000000e-02   5.4000000e-02   5.4000000e-02   5.4000000e-02   5.4000000e-02   5.4000000e-02   5.4000000e-02   5.4000000e-02   5.4000000e-02   5.4000000e-02   5.4000000e-02   5.4000000e-02   5.4000000e-02   5.4000000e-02   5.4000000e-02   5.4000000e-02   5.4000000e-02   5.4000000e-02   5.4000000e-02   5.4000000e-02   5.4000000e-02   5.4000000e-02   5.4000000e-02   5.4000000e-02   5.4000000e-02   5.3892518e-02   5.3247801e-02   5.2533895e-02   5.1726169e-02   5.0813138e-02   4.9797023e-02   4.8693645e-02   4.7566904e-02   4.6402934e-02   4.5276306e-02   4.4244891e-02   4.3369969e-02   4.2715898e-02   4.2329321e-02   4.2261746e-02   4.2544501e-02   4.3190634e-02   4.4191699e-02   4.5515742e-02   4.7106832e-02   4.8900889e-02   5.0776282e-02   5.2630038e-02   5.4000000e-02   5.4000000e-02   5.4000000e-02   5.4000000e-02   5.4000000e-02   5.4000000e-02   5.4000000e-02   5.4000000e-02   5.3556377e-02   5.1726499e-02   4.9842654e-02   4.8055585e-02   4.6503744e-02   4.5298812e-02   4.4514043e-02   4.4177100e-02   4.4268531e-02   4.4726274e-02   4.5455676e-02   4.6343732e-02   4.7275543e-02   4.8150670e-02   4.8897041e-02   4.9480462e-02   4.9908432e-02   5.0227874e-02   5.0517228e-02   5.0874232e-02   5.1401203e-02   5.2189954e-02   5.3308364e-02   5.4000000e-02   5.4000000e-02   5.4000000e-02   5.4000000e-02   5.4000000e-02   5.4000000e-02   5.4000000e-02   5.4000000e-02   5.4000000e-02   5.4000000e-02   5.4000000e-02   5.4000000e-02   5.4000000e-02   5.4000000e-02   5.4000000e-02   5.4000000e-02   5.4000000e-02   5.4000000e-02   5.4000000e-02   5.4000000e-02   5.4000000e-02   5.4000000e-02   5.4000000e-02   5.4000000e-02   5.3028200e-02   5.1074278e-02   4.9543338e-02   4.8558128e-02   4.8206783e-02   4.8520093e-02   4.9454474e-02   5.0885341e-02   5.2613945e-02   5.4000000e-02   5.4000000e-02   5.4000000e-02   5.4000000e-02   5.4000000e-02   5.4000000e-02   5.3786897e-02   5.1320482e-02   4.8578126e-02   4.5835705e-02   4.3360336e-02   4.1375373e-02   4.0036591e-02   3.9438394e-02   3.9530642e-02   4.0262701e-02   4.1500515e-02   4.3076851e-02   4.4812172e-02   4.6534665e-02   4.8095935e-02   4.9381368e-02   5.0314807e-02   5.0857939e-02   5.1005405e-02   5.0777068e-02   5.0209165e-02   4.9345982e-02   4.8233154e-02   4.6915262e-02   4.5433927e-02   4.3866981e-02   4.2172027e-02   4.0458687e-02   3.8786318e-02   3.7224029e-02   3.5847850e-02   3.4733725e-02   3.3950106e-02   3.3549581e-02   3.3561809e-02   3.3988969e-02   3.4804575e-02   3.5955832e-02   3.7369107e-02   3.8957543e-02
5.4000000e-02   5.4000000e-02   5.4000000e-02   5.4000000e-02   5.4000000e-02   5.3999925e-02   5.3999002e-02   5.3996989e-02   5.3993057e-02   5.3985941e-02   5.3973821e-02   5.3954237e-02   5.3924081e-02   5.3879761e-02   5.3817610e-02   5.3734644e-02   5.3629732e-02   5.3505202e-02   5.3368790e-02   5.3235727e-02   5.3130602e-02   5.3088496e-02   5.3154832e-02   5.3383384e-02   5.3832094e-02   5.4000000e-02   5.4000000e-02   5.4000000e-02   5.4000000e-02   5.4000000e-02   5.4000000e-02   5.4000000e-02   5.4000000e-02   5.4000000e-02   5.4000000e-02   5.4000000e-02   5.4000000e-02   5.4000000e-02   5.4000000e-02   5.4000000e-02   5.4000000e-02   5.4000000e-02   5.4000000e-02   5.4000000e-02   5.4000000e-02   5.4000000e-02   5.4000000e-02   5.4000000e-02   5.4000000e-02   5.4000000e-02   5.4000000e-02   5.4000000e-02   5.4000000e-02   5.4000000e-02   5.3795355e-02   5.3101515e-02   5.2283238e-02   5.1323735e-02   5.0221176e-02   4.8988780e-02   4.7698153e-02   4.6323278e-02   4.4947565e-02   4.3634062e-02   4.2451124e-02   4.1473488e-02   4.0753908e-02   4.0357329e-02   4.0326018e-02   4.0683501e-02   4.1430604e-02   4.2542731e-02   4.3968757e-02   4.5651359e-02   4.7459395e-02   4.9288319e-02   5.1014541e-02   5.2509291e-02   5.3654595e-02   5.4000000e-02   5.4000000e-02   5.4000000e-02   5.3287532e-02   5.1930077e-02   5.0205443e-02   4.8248882e-02   4.6217019e-02   4.4272473e-02   4.2567057e-02   4.1225651e-02   4.0332868e-02   3.9924454e-02   3.9984764e-02   4.0450864e-02   4.1222820e-02   4.2178830e-02   4.3193080e-02   4.4153783e-02   4.4978797e-02   4.5626629e-02   4.6101299e-02   4.6450531e-02   4.6757685e-02   4.7128784e-02   4.7676597e-02   4.8504084e-02   4.9689456e-02   5.1274744e-02   5.3259153e-02   5.4000000e-02   5.4000000e-02   5.4000000e-02   5.4000000e-02   5.4000000e-02   5.4000000e-02   5.4000000e-02   5.4000000e-02   5.4000000e-02   5.4000000e-02   5.4000000e-02   5.4000000e-02   5.4000000e-02   5.4000000e-02   5.4000000e-02   5.4000000e-02   5.4000000e-02   5.4000000e-02   5.4000000e-02   5.4000000e-02   5.4000000e-02   5.4000000e-02   5.3631419e-02   5.1507599e-02   4.9775248e-02   4.8574718e-02   4.8014445e-02   4.8145218e-02   4.8939968e-02   5.0284419e-02   5.1982249e-02   5.3775630e-02   5.4000000e-02   5.4000000e-02   5.4000000e-02   5.4000000e-02   5.4000000e-02   5.3512687e-02   5.1033520e-02   4.8257653e-02   4.5472182e-02   4.2954627e-02   4.0937671e-02   3.9583195e-02   3.8991173e-02   3.9101251e-02   3.9862993e-02   4.1135210e-02   4.2744273e-02   4.4505923e-02   4.6246974e-02   4.7821974e-02   4.9123922e-02   5.0088586e-02   5.0692817e-02   5.0947909e-02   5.0889640e-02   5.0566897e-02   5.0030925e-02   4.9326703e-02   4.8489109e-02   4.7541255e-02   4.6539873e-02   4.5397983e-02   4.4199431e-02   4.2970482e-02   4.1752284e-02   4.0600782e-02   3.9581815e-02   3.8764173e-02   3.8210554e-02   3.7968697e-02   3.8064294e-02   3.8496968e-02   3.9239926e-02   4.0243199e-02   4.1439712e-02
5.4000000e-02   5.4000000e-02   5.4000000e-02   5.4000000e-02   5.4000000e-02   5.4000000e-02   5.4000000e-02   5.4000000e-02   5.3999823e-02   5.3995234e-02   5.3986012e-02   5.3969351e-02   5.3941466e-02   5.3897624e-02   5.3832421e-02   5.3740436e-02   5.3617382e-02   5.3461784e-02   5.3277179e-02   5.3074626e-02   5.2875177e-02   5.2711757e-02   5.2629799e-02   5.2685947e-02   5.2944305e-02   5.3470028e-02   5.4000000e-02   5.4000000e-02   5.4000000e-02   5.4000000e-02   5.4000000e-02   5.4000000e-02   5.4000000e-02   5.4000000e-02   5.4000000e-02   5.4000000e-02   5.4000000e-02   5.4000000e-02   5.4000000e-02   5.4000000e-02   5.4000000e-02   5.4000000e-02   5.4000000e-02   5.4000000e-02   5.4000000e-02   5.4000000e-02   5.4000000e-02   5.4000000e-02   5.4000000e-02   5.4000000e-02   5.4000000e-02   5.4000000e-02   5.4000000e-02   5.4000000e-02   5.4000000e-02   5.3859446e-02   5.3074510e-02   5.2111859e-02   5.0965824e-02   4.9647115e-02   4.8235656e-02   4.6692210e-02   4.5109243e-02   4.3554718e-02   4.2103760e-02   4.0841615e-02   3.9825658e-02   3.9134679e-02   3.8821537e-02   3.8919930e-02   3.9439718e-02   4.0363491e-02   4.1644835e-02   4.3233969e-02   4.4989092e-02   4.6804836e-02   4.8550203e-02   5.0086060e-02   5.1282458e-02   5.2029006e-02   5.2246126e-02   5.1894518e-02   5.0981545e-02   4.9563393e-02   4.7742255e-02   4.5658310e-02   4.3476933e-02   4.1372299e-02   3.9509186e-02   3.8025192e-02   3.7015768e-02   3.6524198e-02   3.6538113e-02   3.6993224e-02   3.7783920e-02   3.8779335e-02   3.9842646e-02   4.0850820e-02   4.1711974e-02   4.2377875e-02   4.2849842e-02   4.3177373e-02   4.3449866e-02   4.3782825e-02   4.4300674e-02   4.5118652e-02   4.6326292e-02   4.7974551e-02   5.0068094e-02   5.2563372e-02   5.4000000e-02   5.4000000e-02   5.4000000e-02   5.4000000e-02   5.4000000e-02   5.4000000e-02   5.4000000e-02   5.4000000e-02   5.4000000e-02   5.4000000e-02   5.4000000e-02   5.4000000e-02   5.4000000e-02   5.4000000e-02   5.4000000e-02   5.4000000e-02   5.4000000e-02   5.4000000e-02   5.4000000e-02   5.4000000e-02   5.4000000e-02   5.4000000e-02   5.2349527e-02   5.0479546e-02   4.9123167e-02   4.8405791e-02   4.8395252e-02   4.9078722e-02   5.0350871e-02   5.2017482e-02   5.3815760e-02   5.4000000e-02   5.4000000e-02   5.4000000e-02   5.4000000e-02   5.4000000e-02   5.3641477e-02   5.1104099e-02   4.8253190e-02   4.5387026e-02   4.2793708e-02   4.0714808e-02   3.9317561e-02   3.8706874e-02   3.8810366e-02   3.9577109e-02   4.0857309e-02   4.2469650e-02   4.4223711e-02   4.5943506e-02   4.7485238e-02   4.8748527e-02   4.9680565e-02   5.0273541e-02   5.0556426e-02   5.0582830e-02   5.0417108e-02   5.0120999e-02   4.9742813e-02   4.9311825e-02   4.8836411e-02   4.8355092e-02   4.7738816e-02   4.7046195e-02   4.6269997e-02   4.5421821e-02   4.4535017e-02   4.3662161e-02   4.2868939e-02   4.2224767e-02   4.1792391e-02   4.1618452e-02   4.1726715e-02   4.2115027e-02   4.2756259e-02   4.3602716e-02
5.4000000e-02   5.4000000e-02   5.4000000e-02   5.4000000e-02   5.4000000e-02   5.4000000e-02   5.4000000e-02   5.4000000e-02   5.4000000e-02   5.4000000e-02   5.4000000e-02   5.3996141e-02   5.3974828e-02   5.3936642e-02   5.3874256e-02   5.3779392e-02   5.3643861e-02   5.3461275e-02   5.3229452e-02   5.2953387e-02   5.2648416e-02   5.2343021e-02   5.2080501e-02   5.1918673e-02   5.1926878e-02   5.2179892e-02   5.2748861e-02   5.3690085e-02   5.4000000e-02   5.4000000e-02   5.4000000e-02   5.4000000e-02   5.4000000e-02   5.4000000e-02   5.4000000e-02   5.4000000e-02   5.4000000e-02   5.4000000e-02   5.4000000e-02   5.4000000e-02   5.4000000e-02   5.4000000e-02   5.4000000e-02   5.4000000e-02   5.4000000e-02   5.4000000e-02   5.4000000e-02   5.4000000e-02   5.4000000e-02   5.4000000e-02   5.4000000e-02   5.4000000e-02   5.4000000e-02   5.4000000e-02   5.4000000e-02   5.4000000e-02   5.4000000e-02   5.3168799e-02   5.2025213e-02   5.0666562e-02   4.9181495e-02   4.7516893e-02   4.5774280e-02   4.4026182e-02   4.2354042e-02   4.0853604e-02   3.9585025e-02   3.8641171e-02   3.8084863e-02   3.7959398e-02   3.8283182e-02   3.9045614e-02   4.0204755e-02   4.1719049e-02   4.3434964e-02   4.5247181e-02   4.7017690e-02   4.8597643e-02   4.9845839e-02   5.0639988e-02   5.0889109e-02   5.0544173e-02   4.9605568e-02   4.8126108e-02   4.6208695e-02   4.3998311e-02   4.1668725e-02   3.9405124e-02   3.7384539e-02   3.5756491e-02   3.4626436e-02   3.4044401e-02   3.4000593e-02   3.4428819e-02   3.5217426e-02   3.6226338e-02   3.7307792e-02   3.8327803e-02   3.9185247e-02   3.9825823e-02   4.0248973e-02   4.0506893e-02   4.0695998e-02   4.0942268e-02   4.1382731e-02   4.2145770e-02   4.3332963e-02   4.5004763e-02   4.7171652e-02   4.9791590e-02   5.2773655e-02   5.4000000e-02   5.4000000e-02   5.4000000e-02   5.4000000e-02   5.4000000e-02   5.4000000e-02   5.4000000e-02   5.4000000e-02   5.4000000e-02   5.4000000e-02   5.4000000e-02   5.4000000e-02   5.4000000e-02   5.4000000e-02   5.4000000e-02   5.4000000e-02   5.4000000e-02   5.4000000e-02   5.4000000e-02   5.4000000e-02   5.4000000e-02   5.3456520e-02   5.1505364e-02   5.0046759e-02   4.9219446e-02   4.9105092e-02   4.9702704e-02   5.0914597e-02   5.2548604e-02   5.4000000e-02   5.4000000e-02   5.4000000e-02   5.4000000e-02   5.4000000e-02   5.4000000e-02   5.4000000e-02   5.1439298e-02   4.8490482e-02   4.5524224e-02   4.2838404e-02   4.0682330e-02   3.9227415e-02   3.8582654e-02   3.8662020e-02   3.9413613e-02   4.0677820e-02   4.2264678e-02   4.3976348e-02   4.5632660e-02   4.7090070e-02   4.8253586e-02   4.9081012e-02   4.9579747e-02   4.9797217e-02   4.9806722e-02   4.9691003e-02   4.9526173e-02   4.9368404e-02   4.9246211e-02   4.9157877e-02   4.9127332e-02   4.8987472e-02   4.8772798e-02   4.8443026e-02   4.7979401e-02   4.7390619e-02   4.6713214e-02   4.6006456e-02   4.5342972e-02   4.4797099e-02   4.4433302e-02   4.4296799e-02   4.4407875e-02   4.4760544e-02   4.5325270e-02
5.4000000e-02   5.4000000e-02   5.4000000e-02   5.4000000e-02   5.4000000e-02   5.4000000e-02   5.4000000e-02   5.4000000e-02   5.4000000e-02   5.4000000e-02   5.4000000e-02   5.4000000e-02   5.4000000e-02   5.4000000e-02   5.3952394e-02   5.3864409e-02   5.3726732e-02   5.3527096e-02   5.3256211e-02   5.2911184e-02   5.2499466e-02   5.2042734e-02   5.1579838e-02   5.1167804e-02   5.0879935e-02   5.0800338e-02   5.1014785e-02   5.1598581e-02   5.2602966e-02   5.4000000e-02   5.4000000e-02   5.4000000e-02   5.4000000e-02   5.4000000e-02   5.4000000e-02   5.4000000e-02   5.4000000e-02   5.4000000e-02   5.4000000e-02   5.4000000e-02   5.4000000e-02   5.4000000e-02   5.4000000e-02   5.4000000e-02   5.4000000e-02   5.4000000e-02   5.4000000e-02   5.4000000e-02   5.4000000e-02   5.4000000e-02   5.4000000e-02   5.4000000e-02   5.4000000e-02   5.4000000e-02   5.4000000e-02   5.4000000e-02   5.4000000e-02   5.4000000e-02   5.3370695e-02   5.2018636e-02   5.0507673e-02   4.8770617e-02   4.6917819e-02   4.5025944e-02   4.3182185e-02   4.1492654e-02   4.0018188e-02   3.8865801e-02   3.8107425e-02   3.7795170e-02   3.7955300e-02   3.8583497e-02   3.9641960e-02   4.1097939e-02   4.2785257e-02   4.4599627e-02   4.6396571e-02   4.8018483e-02   4.9313946e-02   5.0149881e-02   5.0424994e-02   5.0081496e-02   4.9113563e-02   4.7571122e-02   4.5557938e-02   4.3223607e-02   4.0749783e-02   3.8331874e-02   3.6158183e-02   3.4389075e-02   3.3138936e-02   3.2463573e-02   3.2354991e-02   3.2744563e-02   3.3514346e-02   3.4515077e-02   3.5588332e-02   3.6589655e-02   3.7409309e-02   3.7987654e-02   3.8323009e-02   3.8471022e-02   3.8535836e-02   3.8654555e-02   3.8977383e-02   3.9646337e-02   4.0775445e-02   4.2434958e-02   4.4641393e-02   4.7354327e-02   5.0479906e-02   5.3974570e-02   5.4000000e-02   5.4000000e-02   5.4000000e-02   5.4000000e-02   5.4000000e-02   5.4000000e-02   5.4000000e-02   5.4000000e-02   5.4000000e-02   5.4000000e-02   5.4000000e-02   5.4000000e-02   5.4000000e-02   5.4000000e-02   5.4000000e-02   5.4000000e-02   5.4000000e-02   5.4000000e-02   5.4000000e-02   5.4000000e-02   5.4000000e-02   5.2667966e-02   5.1151572e-02   5.0253615e-02   5.0066340e-02   5.0598258e-02   5.1758269e-02   5.3356629e-02   5.4000000e-02   5.4000000e-02   5.4000000e-02   5.4000000e-02   5.4000000e-02   5.4000000e-02   5.4000000e-02   5.1924819e-02   4.8879339e-02   4.5817121e-02   4.3043929e-02   4.0814881e-02   3.9303944e-02   3.8623197e-02   3.8671666e-02   3.9396328e-02   4.0626985e-02   4.2164589e-02   4.3803028e-02   4.5356811e-02   4.6681307e-02   4.7685572e-02   4.8336964e-02   4.8657640e-02   4.8713937e-02   4.8600398e-02   4.8420894e-02   4.8269732e-02   4.8215578e-02   4.8291277e-02   4.8490045e-02   4.8825113e-02   4.9096472e-02   4.9315918e-02   4.9411242e-02   4.9333036e-02   4.9064113e-02   4.8622606e-02   4.8058423e-02   4.7444093e-02   4.6862110e-02   4.6391389e-02   4.6095413e-02   4.6013997e-02   4.6159695e-02   4.6518860e-02
5.4000000e-02   5.4000000e-02   5.4000000e-02   5.4000000e-02   5.4000000e-02   5.4000000e-02   5.4000000e-02   5.4000000e-02   5.4000000e-02   5.4000000e-02   5.4000000e-02   5.4000000e-02   5.4000000e-02   5.4000000e-02   5.4000000e-02   5.4000000e-02   5.3883572e-02   5.3683322e-02   5.3389786e-02   5.2990599e-02   5.2483338e-02   5.1880615e-02   5.1214502e-02   5.0539122e-02   4.9930152e-02   4.9480270e-02   4.9290170e-02   4.9455639e-02   5.0052178e-02   5.1119548e-02   5.2649154e-02   5.4000000e-02   5.4000000e-02   5.4000000e-02   5.4000000e-02   5.4000000e-02   5.4000000e-02   5.4000000e-02   5.4000000e-02   5.4000000e-02   5.4000000e-02   5.4000000e-02   5.4000000e-02   5.4000000e-02   5.4000000e-02   5.4000000e-02   5.4000000e-02   5.4000000e-02   5.4000000e-02   5.4000000e-02   5.4000000e-02   5.4000000e-02   5.4000000e-02   5.4000000e-02   5.4000000e-02   5.4000000e-02   5.4000000e-02   5.4000000e-02   5.4000000e-02   5.3650242e-02   5.2158052e-02   5.0394910e-02   4.8479508e-02   4.6492172e-02   4.4525198e-02   4.2694829e-02   4.1060340e-02   3.9742810e-02   3.8822275e-02   3.8358714e-02   3.8385433e-02   3.8903760e-02   3.9879641e-02   4.1289612e-02   4.2954173e-02   4.4771149e-02   4.6590270e-02   4.8246397e-02   4.9579221e-02   5.0446279e-02   5.0737329e-02   5.0387033e-02   4.9384288e-02   4.7776700e-02   4.5669044e-02   4.3215233e-02   4.0604102e-02   3.8040251e-02   3.5722012e-02   3.3819266e-02   3.2454073e-02   3.1686946e-02   3.1510911e-02   3.1854473e-02   3.2593325e-02   3.3569269e-02   3.4613726e-02   3.5572447e-02   3.6327823e-02   3.6815590e-02   3.7033573e-02   3.7041363e-02   3.6951178e-02   3.6911461e-02   3.7085709e-02   3.7629630e-02   3.8669738e-02   4.0286134e-02   4.2501451e-02   4.5276992e-02   4.8516108e-02   5.2176689e-02   5.4000000e-02   5.4000000e-02   5.4000000e-02   5.4000000e-02   5.4000000e-02   5.4000000e-02   5.4000000e-02   5.4000000e-02   5.4000000e-02   5.4000000e-02   5.4000000e-02   5.4000000e-02   5.4000000e-02   5.4000000e-02   5.4000000e-02   5.4000000e-02   5.4000000e-02   5.4000000e-02   5.4000000e-02   5.4000000e-02   5.4000000e-02   5.3784378e-02   5.2246060e-02   5.1309402e-02   5.1073985e-02   5.1555620e-02   5.2669004e-02   5.4000000e-02   5.4000000e-02   5.4000000e-02   5.4000000e-02   5.4000000e-02   5.4000000e-02   5.4000000e-02   5.4000000e-02   5.2453020e-02   4.9335836e-02   4.6204919e-02   4.3371034e-02   4.1092502e-02   3.9543871e-02   3.8839217e-02   3.8861768e-02   3.9557665e-02   4.0745907e-02   4.2218607e-02   4.3761071e-02   4.5181745e-02   4.6333775e-02   4.7128923e-02   4.7542848e-02   4.7611664e-02   4.7420598e-02   4.7086467e-02   4.6736468e-02   4.6486414e-02   4.6421734e-02   4.6584273e-02   4.6967071e-02   4.7576329e-02   4.8184947e-02   4.8783438e-02   4.9269333e-02   4.9563072e-02   4.9621042e-02   4.9441594e-02   4.9063283e-02   4.8556163e-02   4.8008309e-02   4.7510474e-02   4.7141863e-02   4.6959423e-02   4.6992070e-02   4.7240134e-02
5.4000000e-02   5.4000000e-02   5.4000000e-02   5.4000000e-02   5.4000000e-02   5.4000000e-02   5.4000000e-02   5.4000000e-02   5.4000000e-02   5.4000000e-02   5.4000000e-02   5.4000000e-02   5.4000000e-02   5.4000000e-02   5.4000000e-02   5.4000000e-02   5.4000000e-02   5.3951083e-02   5.3659500e-02   5.3231492e-02   5.2653120e-02   5.1925931e-02   5.1073046e-02   5.0143555e-02   4.9213691e-02   4.8383470e-02   4.7768087e-02   4.7484321e-02   4.7633385e-02   4.8282750e-02   4.9450244e-02   5.1093824e-02   5.3109806e-02   5.4000000e-02   5.4000000e-02   5.4000000e-02   5.4000000e-02   5.4000000e-02   5.4000000e-02   5.4000000e-02   5.4000000e-02   5.4000000e-02   5.4000000e-02   5.4000000e-02   5.4000000e-02   5.4000000e-02   5.4000000e-02   5.4000000e-02   5.4000000e-02   5.4000000e-02   5.4000000e-02   5.4000000e-02   5.4000000e-02   5.4000000e-02   5.4000000e-02   5.4000000e-02   5.4000000e-02   5.4000000e-02   5.4000000e-02   5.4000000e-02   5.4000000e-02   5.2305169e-02   5.0369768e-02   4.8330662e-02   4.6284552e-02   4.4357471e-02   4.2604879e-02   4.1161688e-02   4.0114927e-02   3.9531403e-02   3.9450566e-02   3.9878703e-02   4.0785103e-02   4.2155945e-02   4.3798048e-02   4.5612503e-02   4.7444019e-02   4.9121400e-02   5.0477000e-02   5.1360610e-02   5.1654618e-02   5.1287507e-02   5.0243929e-02   4.8569751e-02   4.6370826e-02   4.3804934e-02   4.1067172e-02   3.8370042e-02   3.5920400e-02   3.3896095e-02   3.2425443e-02   3.1572532e-02   3.1330670e-02   3.1625207e-02   3.2325613e-02   3.3265265e-02   3.4266195e-02   3.5165228e-02   3.5837726e-02   3.6215495e-02   3.6296328e-02   3.6143956e-02   3.5878621e-02   3.5659852e-02   3.5664080e-02   3.6060318e-02   3.6987252e-02   3.8534648e-02   4.0731238e-02   4.3540222e-02   4.6862482e-02   5.0655751e-02   5.4000000e-02   5.4000000e-02   5.4000000e-02   5.4000000e-02   5.4000000e-02   5.4000000e-02   5.4000000e-02   5.4000000e-02   5.4000000e-02   5.4000000e-02   5.4000000e-02   5.4000000e-02   5.4000000e-02   5.4000000e-02   5.4000000e-02   5.4000000e-02   5.4000000e-02   5.4000000e-02   5.4000000e-02   5.4000000e-02   5.4000000e-02   5.4000000e-02   5.3173491e-02   5.2225932e-02   5.1963950e-02   5.2408502e-02   5.3479460e-02   5.4000000e-02   5.4000000e-02   5.4000000e-02   5.4000000e-02   5.4000000e-02   5.4000000e-02   5.4000000e-02   5.4000000e-02   5.2943246e-02   4.9797702e-02   4.6643217e-02   4.3792008e-02   4.1502571e-02   3.9947929e-02   3.9243171e-02   3.9255543e-02   3.9931262e-02   4.1079111e-02   4.2483609e-02   4.3922143e-02   4.5197269e-02   4.6159584e-02   4.6722882e-02   4.6870361e-02   4.6651554e-02   4.6170582e-02   4.5567290e-02   4.4993791e-02   4.4589741e-02   4.4460078e-02   4.4658790e-02   4.5181448e-02   4.6028366e-02   4.6949125e-02   4.7911650e-02   4.8782646e-02   4.9451043e-02   4.9844932e-02   4.9940799e-02   4.9763819e-02   4.9379794e-02   4.8880953e-02   4.8368794e-02   4.7937422e-02   4.7660249e-02   4.7581938e-02   4.7716153e-02
5.4000000e-02   5.4000000e-02   5.4000000e-02   5.4000000e-02   5.4000000e-02   5.4000000e-02   5.4000000e-02   5.4000000e-02   5.4000000e-02   5.4000000e-02   5.4000000e-02   5.4000000e-02   5.4000000e-02   5.4000000e-02   5.4000000e-02   5.4000000e-02   5.4000000e-02   5.4000000e-02   5.4000000e-02   5.3663849e-02   5.3050713e-02   5.2235721e-02   5.1231161e-02   5.0079074e-02   4.8854312e-02   4.7662593e-02   4.6632463e-02   4.5901180e-02   4.5595827e-02   4.5812368e-02   4.6596299e-02   4.7928902e-02   4.9722479e-02   5.1907093e-02   5.4000000e-02   5.4000000e-02   5.4000000e-02   5.4000000e-02   5.4000000e-02   5.4000000e-02   5.4000000e-02   5.4000000e-02   5.4000000e-02   5.4000000e-02   5.4000000e-02   5.4000000e-02   5.4000000e-02   5.4000000e-02   5.4000000e-02   5.4000000e-02   5.4000000e-02   5.4000000e-02   5.4000000e-02   5.4000000e-02   5.4000000e-02   5.4000000e-02   5.4000000e-02   5.4000000e-02   5.4000000e-02   5.4000000e-02   5.4000000e-02   5.4000000e-02   5.2479191e-02   5.0425260e-02   4.8337664e-02   4.6351777e-02   4.4517111e-02   4.2982006e-02   4.1839323e-02   4.1161609e-02   4.0993521e-02   4.1345607e-02   4.2190109e-02   4.3523076e-02   4.5137662e-02   4.6939439e-02   4.8768916e-02   5.0450536e-02   5.1811054e-02   5.2694323e-02   5.2977087e-02   5.2583112e-02   5.1493865e-02   4.9754010e-02   4.7470423e-02   4.4804105e-02   4.1955238e-02   3.9142668e-02   3.6580002e-02   3.4451289e-02   3.2889539e-02   3.1961235e-02   3.1659288e-02   3.1905757e-02   3.2564268e-02   3.3460553e-02   3.4408270e-02   3.5236396e-02   3.5814214e-02   3.6070277e-02   3.6002654e-02   3.5679137e-02   3.5227560e-02   3.4817857e-02   3.4638583e-02   3.4871280e-02   3.5666175e-02   3.7122332e-02   3.9274525e-02   4.2088121e-02   4.5462090e-02   4.9352400e-02   5.3404258e-02   5.4000000e-02   5.4000000e-02   5.4000000e-02   5.4000000e-02   5.4000000e-02   5.4000000e-02   5.4000000e-02   5.4000000e-02   5.4000000e-02   5.4000000e-02   5.4000000e-02   5.4000000e-02   5.4000000e-02   5.4000000e-02   5.4000000e-02   5.4000000e-02   5.4000000e-02   5.4000000e-02   5.4000000e-02   5.4000000e-02   5.4000000e-02   5.3828854e-02   5.2897980e-02   5.2631337e-02   5.3052819e-02   5.4000000e-02   5.4000000e-02   5.4000000e-02   5.4000000e-02   5.4000000e-02   5.4000000e-02   5.4000000e-02   5.4000000e-02   5.4000000e-02   5.3347921e-02   5.0227252e-02   4.7103852e-02   4.4287386e-02   4.2033264e-02   4.0510816e-02   3.9835157e-02   3.9857787e-02   4.0526049e-02   4.1639217e-02   4.2975562e-02   4.4305018e-02   4.5423904e-02   4.6179045e-02   4.6484280e-02   4.6327889e-02   4.5770301e-02   4.4932381e-02   4.3975649e-02   4.3076901e-02   4.2400735e-02   4.2074067e-02   4.2166756e-02   4.2681665e-02   4.3617531e-02   4.4709212e-02   4.5905991e-02   4.7049205e-02   4.8001012e-02   4.8664951e-02   4.8998202e-02   4.9013776e-02   4.8773030e-02   4.8370735e-02   4.7916229e-02   4.7514494e-02   4.7250576e-02   4.7179588e-02   4.7323153e-02
5.4000000e-02   5.4000000e-02   5.4000000e-02   5.4000000e-02   5.4000000e-02   5.4000000e-02   5.4000000e-02   5.4000000e-02   5.4000000e-02   5.4000000e-02   5.4000000e-02   5.4000000e-02   5.4000000e-02   5.4000000e-02   5.4000000e-02   5.4000000e-02   5.4000000e-02   5.4000000e-02   5.4000000e-02   5.4000000e-02   5.3697870e-02   5.2843228e-02   5.1737003e-02   5.0412418e-02   4.8941011e-02   4.7432261e-02   4.6026298e-02   4.4879375e-02   4.4143360e-02   4.3942035e-02   4.4348286e-02   4.5366758e-02   4.6926016e-02   4.8971222e-02   5.1164409e-02   5.3342964e-02   5.4000000e-02   5.4000000e-02   5.4000000e-02   5.4000000e-02   5.4000000e-02   5.4000000e-02   5.4000000e-02   5.4000000e-02   5.4000000e-02   5.4000000e-02   5.4000000e-02   5.4000000e-02   5.4000000e-02   5.4000000e-02   5.4000000e-02   5.4000000e-02   5.4000000e-02   5.4000000e-02   5.4000000e-02   5.4000000e-02   5.4000000e-02   5.4000000e-02   5.4000000e-02   5.4000000e-02   5.4000000e-02   5.4000000e-02   5.4000000e-02   5.2650229e-02   5.0551486e-02   4.8537626e-02   4.6650320e-02   4.5050732e-02   4.3836375e-02   4.3084430e-02   4.2843823e-02   4.3128678e-02   4.3913836e-02   4.5205286e-02   4.6782963e-02   4.8558152e-02   5.0368013e-02   5.2034497e-02   5.3380634e-02   5.4000000e-02   5.4000000e-02   5.4000000e-02   5.2938550e-02   5.1137976e-02   4.8781248e-02   4.6031715e-02   4.3093210e-02   4.0189073e-02   3.7537627e-02   3.5327123e-02   3.3693558e-02   3.2704579e-02   3.2352068e-02   3.2554807e-02   3.3171168e-02   3.4020271e-02   3.4908671e-02   3.5658777e-02   3.6134866e-02   3.6262922e-02   3.6041496e-02   3.5542137e-02   3.4899534e-02   3.4292985e-02   3.3922006e-02   3.3979559e-02   3.4626555e-02   3.5970855e-02   3.8053234e-02   4.0841628e-02   4.4233912e-02   4.8182824e-02   5.2324187e-02   5.4000000e-02   5.4000000e-02   5.4000000e-02   5.4000000e-02   5.4000000e-02   5.4000000e-02   5.4000000e-02   5.4000000e-02   5.4000000e-02   5.4000000e-02   5.4000000e-02   5.4000000e-02   5.4000000e-02   5.4000000e-02   5.4000000e-02   5.4000000e-02   5.4000000e-02   5.4000000e-02   5.4000000e-02   5.4000000e-02   5.4000000e-02   5.4000000e-02   5.3272858e-02   5.3025921e-02   5.3440952e-02   5.4000000e-02   5.4000000e-02   5.4000000e-02   5.4000000e-02   5.4000000e-02   5.4000000e-02   5.4000000e-02   5.4000000e-02   5.4000000e-02   5.3643047e-02   5.0602176e-02   4.7565891e-02   4.4837401e-02   4.2665938e-02   4.1215276e-02   4.0599910e-02   4.0656661e-02   4.1335682e-02   4.2428243e-02   4.3708762e-02   4.4941273e-02   4.5916645e-02   4.6477832e-02   4.6537785e-02   4.6088298e-02   4.5198788e-02   4.4004949e-02   4.2688360e-02   4.1449428e-02   4.0477286e-02   3.9921106e-02   3.9867506e-02   4.0327992e-02   4.1300159e-02   4.2508889e-02   4.3884716e-02   4.5245487e-02   4.6428361e-02   4.7314006e-02   4.7841850e-02   4.8014140e-02   4.7888941e-02   4.7564404e-02   4.7158102e-02   4.6785806e-02   4.6543580e-02   4.6495891e-02   4.6670844e-02
5.4000000e-02   5.4000000e-02   5.4000000e-02   5.4000000e-02   5.4000000e-02   5.4000000e-02   5.4000000e-02   5.4000000e-02   5.4000000e-02   5.4000000e-02   5.4000000e-02   5.4000000e-02   5.4000000e-02   5.4000000e-02   5.4000000e-02   5.4000000e-02   5.4000000e-02   5.4000000e-02   5.4000000e-02   5.4000000e-02   5.4000000e-02   5.3749151e-02   5.2599909e-02   5.1164796e-02   4.9510240e-02   4.7747403e-02   4.6025750e-02   4.4518275e-02   4.3399479e-02   4.2819042e-02   4.2875650e-02   4.3596106e-02   4.4924480e-02   4.6820050e-02   4.8931595e-02   5.1091818e-02   5.3066118e-02   5.4000000e-02   5.4000000e-02   5.4000000e-02   5.4000000e-02   5.4000000e-02   5.4000000e-02   5.4000000e-02   5.3494705e-02   5.3011963e-02   5.2879788e-02   5.3146721e-02   5.3806045e-02   5.4000000e-02   5.4000000e-02   5.4000000e-02   5.4000000e-02   5.4000000e-02   5.4000000e-02   5.4000000e-02   5.4000000e-02   5.4000000e-02   5.4000000e-02   5.4000000e-02   5.4000000e-02   5.4000000e-02   5.4000000e-02   5.4000000e-02   5.2796139e-02   5.0778380e-02   4.8861722e-02   4.7219308e-02   4.5952120e-02   4.5140875e-02   4.4837844e-02   4.5060065e-02   4.5784664e-02   4.7027472e-02   4.8556087e-02   5.0288749e-02   5.2060081e-02   5.3691569e-02   5.4000000e-02   5.4000000e-02   5.4000000e-02   5.4000000e-02   5.4000000e-02   5.2557617e-02   5.0145238e-02   4.7336100e-02   4.4335987e-02   4.1370615e-02   3.8660725e-02   3.6396569e-02   3.4715271e-02   3.3684348e-02   3.3294057e-02   3.3460021e-02   3.4036138e-02   3.4836165e-02   3.5661054e-02   3.6328121e-02   3.6697835e-02   3.6694349e-02   3.6316845e-02   3.5640191e-02   3.4804980e-02   3.3998579e-02   3.3430037e-02   3.3302411e-02   3.3786271e-02   3.4997722e-02   3.6983528e-02   3.9714758e-02   4.3089252e-02   4.7055342e-02   5.1244759e-02   5.4000000e-02   5.4000000e-02   5.4000000e-02   5.4000000e-02   5.4000000e-02   5.4000000e-02   5.4000000e-02   5.4000000e-02   5.4000000e-02   5.4000000e-02   5.4000000e-02   5.4000000e-02   5.4000000e-02   5.4000000e-02   5.4000000e-02   5.4000000e-02   5.4000000e-02   5.4000000e-02   5.4000000e-02   5.4000000e-02   5.4000000e-02   5.4000000e-02   5.3330467e-02   5.3129329e-02   5.3556425e-02   5.4000000e-02   5.4000000e-02   5.4000000e-02   5.4000000e-02   5.4000000e-02   5.4000000e-02   5.4000000e-02   5.4000000e-02   5.4000000e-02   5.3807546e-02   5.0896755e-02   4.7998680e-02   4.5406471e-02   4.3360434e-02   4.2017278e-02   4.1490510e-02   4.1603984e-02   4.2312653e-02   4.3401668e-02   4.4644489e-02   4.5801252e-02   4.6658568e-02   4.7055727e-02   4.6904010e-02   4.6197088e-02   4.5011113e-02   4.3494041e-02   4.1844940e-02   4.0285521e-02   3.9027604e-02   3.8241372e-02   3.8029598e-02   3.8412457e-02   3.9385806e-02   4.0668627e-02   4.2172367e-02   4.3693421e-02   4.5046269e-02   4.6091209e-02   4.6752495e-02   4.7024109e-02   4.6963094e-02   4.6672830e-02   4.6280438e-02   4.5913131e-02   4.5677971e-02   4.5648116e-02   4.5856963e-02
5.4000000e-02   5.4000000e-02   5.4000000e-02   5.4000000e-02   5.4000000e-02   5.4000000e-02   5.4000000e-02   5.4000000e-02   5.4000000e-02   5.4000000e-02   5.4000000e-02   5.4000000e-02   5.4000000e-02   5.4000000e-02   5.4000000e-02   5.4000000e-02   5.4000000e-02   5.4000000e-02   5.4000000e-02   5.4000000e-02   5.4000000e-02   5.4000000e-02   5.3785383e-02   5.2305214e-02   5.0537252e-02   4.8592278e-02   4.6626600e-02   4.4827150e-02   4.3388135e-02   4.2482294e-02   4.2231553e-02   4.2682801e-02   4.3794172e-02   4.5537457e-02   4.7549728e-02   4.9659224e-02   5.1617994e-02   5.3210808e-02   5.4000000e-02   5.4000000e-02   5.4000000e-02   5.4000000e-02   5.3647982e-02   5.2847977e-02   5.2167573e-02   5.1766962e-02   5.1755811e-02   5.2183923e-02   5.3041821e-02   5.4000000e-02   5.4000000e-02   5.4000000e-02   5.4000000e-02   5.4000000e-02   5.4000000e-02   5.4000000e-02   5.4000000e-02   5.4000000e-02   5.4000000e-02   5.4000000e-02   5.4000000e-02   5.4000000e-02   5.4000000e-02   5.4000000e-02   5.4000000e-02   5.3012928e-02   5.1119249e-02   4.9493138e-02   4.8237904e-02   4.7436239e-02   4.7141807e-02   4.7372305e-02   4.8104708e-02   4.9361780e-02   5.0897198e-02   5.2634351e-02   5.4000000e-02   5.4000000e-02   5.4000000e-02   5.4000000e-02   5.4000000e-02   5.4000000e-02   5.4000000e-02   5.4000000e-02   5.2103140e-02   4.9205740e-02   4.6115137e-02   4.3059759e-02   4.0262703e-02   3.7915934e-02   3.6157371e-02   3.5054222e-02   3.4595231e-02   3.4693351e-02   3.5198824e-02   3.5921113e-02   3.6656690e-02   3.7218747e-02   3.7464560e-02   3.7316544e-02   3.6774014e-02   3.5914067e-02   3.4881635e-02   3.3870302e-02   3.3096742e-02   3.2772394e-02   3.3076187e-02   3.4131756e-02   3.5991808e-02   3.8631170e-02   4.1948872e-02   4.5888029e-02   5.0081653e-02   5.4000000e-02   5.4000000e-02   5.4000000e-02   5.4000000e-02   5.4000000e-02   5.4000000e-02   5.4000000e-02   5.4000000e-02   5.4000000e-02   5.4000000e-02   5.4000000e-02   5.4000000e-02   5.4000000e-02   5.4000000e-02   5.4000000e-02   5.4000000e-02   5.4000000e-02   5.4000000e-02   5.4000000e-02   5.4000000e-02   5.4000000e-02   5.3756054e-02   5.3056052e-02   5.2924569e-02   5.3380644e-02   5.4000000e-02   5.4000000e-02   5.4000000e-02   5.4000000e-02   5.4000000e-02   5.4000000e-02   5.4000000e-02   5.4000000e-02   5.4000000e-02   5.3800277e-02   5.1062530e-02   4.8346058e-02   4.5930797e-02   4.4045810e-02   4.2839633e-02   4.2424661e-02   4.2614061e-02   4.3369739e-02   4.4472842e-02   4.5699130e-02   4.6807178e-02   4.7580871e-02   4.7856343e-02   4.7542621e-02   4.6633646e-02   4.5209852e-02   4.3428419e-02   4.1502564e-02   3.9671965e-02   3.8168081e-02   3.7179558e-02   3.6823459e-02   3.7127564e-02   3.8084635e-02   3.9411130e-02   4.0999038e-02   4.2625507e-02   4.4085077e-02   4.5220784e-02   4.5944976e-02   4.6246582e-02   4.6184548e-02   4.5869936e-02   4.5441223e-02   4.5038157e-02   4.4779144e-02   4.4745700e-02   4.4975619e-02
5.4000000e-02   5.4000000e-02   5.4000000e-02   5.4000000e-02   5.4000000e-02   5.4000000e-02   5.4000000e-02   5.4000000e-02   5.4000000e-02   5.4000000e-02   5.4000000e-02   5.4000000e-02   5.4000000e-02   5.4000000e-02   5.4000000e-02   5.4000000e-02   5.4000000e-02   5.4000000e-02   5.4000000e-02   5.4000000e-02   5.4000000e-02   5.4000000e-02   5.4000000e-02   5.3753445e-02   5.1939052e-02   4.9883304e-02   4.7746793e-02   4.5727307e-02   4.4035376e-02   4.2863376e-02   4.2353341e-02   4.2569698e-02   4.3482926e-02   4.5075477e-02   4.6974765e-02   4.9005006e-02   5.0906898e-02   5.2452906e-02   5.3482504e-02   5.3924853e-02   5.3918535e-02   5.3396096e-02   5.2612391e-02   5.1773712e-02   5.1083190e-02   5.0709934e-02   5.0769030e-02   5.1311468e-02   5.2324845e-02   5.3742541e-02   5.4000000e-02   5.4000000e-02   5.4000000e-02   5.4000000e-02   5.4000000e-02   5.4000000e-02   5.4000000e-02   5.4000000e-02   5.4000000e-02   5.4000000e-02   5.4000000e-02   5.4000000e-02   5.4000000e-02   5.4000000e-02   5.4000000e-02   5.4000000e-02   5.3188290e-02   5.1570394e-02   5.0312443e-02   4.9498250e-02   4.9182535e-02   4.9383929e-02   5.0080212e-02   5.1302037e-02   5.2792540e-02   5.4000000e-02   5.4000000e-02   5.4000000e-02   5.4000000e-02   5.4000000e-02   5.4000000e-02   5.4000000e-02   5.4000000e-02   5.4000000e-02   5.3559321e-02   5.0640875e-02   4.7533878e-02   4.4465469e-02   4.1657076e-02   3.9298703e-02   3.7526081e-02   3.6404058e-02   3.5918898e-02   3.5980981e-02   3.6437950e-02   3.7096716e-02   3.7751386e-02   3.8213168e-02   3.8337970e-02   3.8047732e-02   3.7342441e-02   3.6301228e-02   3.5072520e-02   3.3854824e-02   3.2870951e-02   3.2339322e-02   3.2446170e-02   3.3322145e-02   3.5026040e-02   3.7537255e-02   4.0757438e-02   4.4624162e-02   4.8776928e-02   5.3110956e-02   5.4000000e-02   5.4000000e-02   5.4000000e-02   5.4000000e-02   5.4000000e-02   5.4000000e-02   5.4000000e-02   5.4000000e-02   5.4000000e-02   5.4000000e-02   5.4000000e-02   5.4000000e-02   5.4000000e-02   5.4000000e-02   5.4000000e-02   5.4000000e-02   5.4000000e-02   5.4000000e-02   5.4000000e-02   5.4000000e-02   5.2991671e-02   5.2417453e-02   5.2370965e-02   5.2865883e-02   5.3837800e-02   5.4000000e-02   5.4000000e-02   5.4000000e-02   5.4000000e-02   5.4000000e-02   5.4000000e-02   5.4000000e-02   5.4000000e-02   5.3544844e-02   5.1016582e-02   4.8518046e-02   4.6313246e-02   4.4618112e-02   4.3572256e-02   4.3287000e-02   4.3567529e-02   4.4384879e-02   4.5518392e-02   4.6749594e-02   4.7838067e-02   4.8566779e-02   4.8769510e-02   4.8352712e-02   4.7309135e-02   4.5721025e-02   4.3751491e-02   4.1624077e-02   3.9592392e-02   3.7903620e-02   3.6761404e-02   3.6294369e-02   3.6536111e-02   3.7474595e-02   3.8826541e-02   4.0464348e-02   4.2148311e-02   4.3656080e-02   4.4816872e-02   4.5534689e-02   4.5796819e-02   4.5667137e-02   4.5266850e-02   4.4747582e-02   4.4262696e-02   4.3942338e-02   4.3876189e-02   4.4105766e-02
5.4000000e-02   5.4000000e-02   5.4000000e-02   5.4000000e-02   5.4000000e-02   5.4000000e-02   5.4000000e-02   5.4000000e-02   5.4000000e-02   5.4000000e-02   5.4000000e-02   5.4000000e-02   5.4000000e-02   5.4000000e-02   5.4000000e-02   5.4000000e-02   5.4000000e-02   5.4000000e-02   5.4000000e-02   5.4000000e-02   5.4000000e-02   5.4000000e-02   5.4000000e-02   5.4000000e-02   5.3588613e-02   5.1485228e-02   4.9244597e-02   4.7072212e-02   4.5191325e-02   4.3810260e-02   4.3087772e-02   4.3103138e-02   4.3837503e-02   4.5282213e-02   4.7057725e-02   4.8985061e-02   5.0796019e-02   5.2253595e-02   5.3189719e-02   5.3529873e-02   5.3414831e-02   5.2781444e-02   5.1894701e-02   5.0971974e-02   5.0227354e-02   4.9838475e-02   4.9925479e-02   5.0540308e-02   5.1667588e-02   5.3234571e-02   5.4000000e-02   5.4000000e-02   5.4000000e-02   5.4000000e-02   5.4000000e-02   5.4000000e-02   5.4000000e-02   5.4000000e-02   5.4000000e-02   5.4000000e-02   5.4000000e-02   5.4000000e-02   5.4000000e-02   5.4000000e-02   5.4000000e-02   5.4000000e-02   5.4000000e-02   5.3472214e-02   5.2231375e-02   5.1422914e-02   5.1101549e-02   5.1285988e-02   5.1954247e-02   5.3143750e-02   5.4000000e-02   5.4000000e-02   5.4000000e-02   5.4000000e-02   5.4000000e-02   5.4000000e-02   5.4000000e-02   5.4000000e-02   5.4000000e-02   5.4000000e-02   5.4000000e-02   5.2032731e-02   4.8940839e-02   4.5891974e-02   4.3103628e-02   4.0761677e-02   3.8997890e-02   3.7873597e-02   3.7372161e-02   3.7401763e-02   3.7808495e-02   3.8398272e-02   3.8964620e-02   3.9318470e-02   3.9315725e-02   3.8878627e-02   3.8007925e-02   3.6784160e-02   3.5358035e-02   3.3931350e-02   3.2731293e-02   3.1981642e-02   3.1874702e-02   3.2547500e-02   3.4064981e-02   3.6411910e-02   3.9493985e-02   4.3243346e-02   4.7310725e-02   5.1585714e-02   5.4000000e-02   5.4000000e-02   5.4000000e-02   5.4000000e-02   5.4000000e-02   5.4000000e-02   5.4000000e-02   5.4000000e-02   5.4000000e-02   5.4000000e-02   5.4000000e-02   5.4000000e-02   5.4000000e-02   5.4000000e-02   5.4000000e-02   5.4000000e-02   5.4000000e-02   5.4000000e-02   5.3864321e-02   5.2670045e-02   5.1802388e-02   5.1356574e-02   5.1395303e-02   5.1926188e-02   5.2886804e-02   5.4000000e-02   5.4000000e-02   5.4000000e-02   5.4000000e-02   5.4000000e-02   5.4000000e-02   5.4000000e-02   5.4000000e-02   5.2929908e-02   5.0644041e-02   4.8395524e-02   4.6430148e-02   4.4949195e-02   4.4082904e-02   4.3941675e-02   4.4325799e-02   4.5217626e-02   4.6397045e-02   4.7655148e-02   4.8755569e-02   4.9482820e-02   4.9669951e-02   4.9221424e-02   4.8128270e-02   4.6472886e-02   4.4421633e-02   4.2204858e-02   4.0085987e-02   3.8323528e-02   3.7131763e-02   3.6646859e-02   3.6904829e-02   3.7885471e-02   3.9305986e-02   4.1017221e-02   4.2762832e-02   4.4304546e-02   4.5459351e-02   4.6124960e-02   4.6289394e-02   4.6024030e-02   4.5462875e-02   4.4773345e-02   4.4124968e-02   4.3662009e-02   4.3484438e-02   4.3639305e-02
5.4000000e-02   5.4000000e-02   5.4000000e-02   5.4000000e-02   5.4000000e-02   5.4000000e-02   5.4000000e-02   5.4000000e-02   5.4000000e-02   5.4000000e-02   5.4000000e-02   5.4000000e-02   5.4000000e-02   5.4000000e-02   5.4000000e-02   5.4000000e-02   5.4000000e-02   5.4000000e-02   5.4000000e-02   5.4000000e-02   5.4000000e-02   5.4000000e-02   5.4000000e-02   5.4000000e-02   5.4000000e-02   5.3236619e-02   5.0947639e-02   4.8680092e-02   4.6666299e-02   4.5126744e-02   4.4233466e-02   4.4077961e-02   4.4650586e-02   4.5950086e-02   4.7593364e-02   4.9399543e-02   5.1094424e-02   5.2434600e-02   5.3247207e-02   5.3456098e-02   5.3203911e-02   5.2434311e-02   5.1420788e-02   5.0390620e-02   4.9567551e-02   4.9136496e-02   4.9221767e-02   4.9875860e-02   5.1080545e-02   5.2757523e-02   5.4000000e-02   5.4000000e-02   5.4000000e-02   5.4000000e-02   5.4000000e-02   5.4000000e-02   5.4000000e-02   5.4000000e-02   5.4000000e-02   5.4000000e-02   5.4000000e-02   5.4000000e-02   5.4000000e-02   5.4000000e-02   5.4000000e-02   5.4000000e-02   5.4000000e-02   5.4000000e-02   5.3960200e-02   5.3178165e-02   5.2869760e-02   5.3052875e-02   5.3705123e-02   5.4000000e-02   5.4000000e-02   5.4000000e-02   5.4000000e-02   5.4000000e-02   5.4000000e-02   5.4000000e-02   5.4000000e-02   5.4000000e-02   5.4000000e-02   5.4000000e-02   5.4000000e-02   5.3384325e-02   5.0335674e-02   4.7335163e-02   4.4594296e-02   4.2292901e-02   4.0557223e-02   3.9444091e-02   3.8933700e-02   3.8932480e-02   3.9286078e-02   3.9800964e-02   4.0271833e-02   4.0511001e-02   4.0375651e-02   3.9789047e-02   3.8752715e-02   3.7347921e-02   3.5726358e-02   3.4091439e-02   3.2672900e-02   3.1698181e-02   3.1364361e-02   3.1814130e-02   3.3118576e-02   3.5268547e-02   3.8175168e-02   4.1765658e-02   4.5706063e-02   4.9880910e-02   5.3880743e-02   5.4000000e-02   5.4000000e-02   5.4000000e-02   5.4000000e-02   5.4000000e-02   5.4000000e-02   5.4000000e-02   5.4000000e-02   5.4000000e-02   5.4000000e-02   5.4000000e-02   5.4000000e-02   5.4000000e-02   5.4000000e-02   5.4000000e-02   5.4000000e-02   5.3168865e-02   5.1902726e-02   5.0863157e-02   5.0135864e-02   4.9799361e-02   4.9903824e-02   5.0451196e-02   5.1381866e-02   5.2572226e-02   5.3845219e-02   5.4000000e-02   5.4000000e-02   5.4000000e-02   5.4000000e-02   5.4000000e-02   5.3648352e-02   5.1827479e-02   4.9816187e-02   4.7848243e-02   4.6149089e-02   4.4904019e-02   4.4233498e-02   4.4246951e-02   4.4742740e-02   4.5716132e-02   4.6949297e-02   4.8246009e-02   4.9376218e-02   5.0127602e-02   5.0333154e-02   4.9894874e-02   4.8800354e-02   4.7129216e-02   4.5047121e-02   4.2786590e-02   4.0616035e-02   3.8800825e-02   3.7562370e-02   3.7042353e-02   3.7279030e-02   3.8245332e-02   3.9663995e-02   4.1368740e-02   4.3092864e-02   4.4588708e-02   4.5667097e-02   4.6224422e-02   4.6252846e-02   4.5832863e-02   4.5111113e-02   4.4269080e-02   4.3489546e-02   4.2927266e-02   4.2688613e-02   4.2822442e-02
5.4000000e-02   5.4000000e-02   5.4000000e-02   5.4000000e-02   5.4000000e-02   5.4000000e-02   5.4000000e-02   5.4000000e-02   5.4000000e-02   5.4000000e-02   5.4000000e-02   5.4000000e-02   5.4000000e-02   5.4000000e-02   5.4000000e-02   5.4000000e-02   5.4000000e-02   5.4000000e-02   5.4000000e-02   5.4000000e-02   5.4000000e-02   5.4000000e-02   5.4000000e-02   5.4000000e-02   5.4000000e-02   5.4000000e-02   5.2685000e-02   5.0370000e-02   4.8270782e-02   4.6616165e-02   4.5588026e-02   4.5287552e-02   4.5713096e-02   4.6869643e-02   4.8374541e-02   5.0046767e-02   5.1609440e-02   5.2816009e-02   5.3491443e-02   5.3559542e-02   5.3163709e-02   5.2255790e-02   5.1114951e-02   4.9975986e-02   4.9069923e-02   4.8586888e-02   4.8653990e-02   4.9323731e-02   5.0575303e-02   5.2325836e-02   5.4000000e-02   5.4000000e-02   5.4000000e-02   5.4000000e-02   5.4000000e-02   5.4000000e-02   5.4000000e-02   5.4000000e-02   5.4000000e-02   5.4000000e-02   5.4000000e-02   5.4000000e-02   5.4000000e-02   5.4000000e-02   5.4000000e-02   5.4000000e-02   5.4000000e-02   5.4000000e-02   5.4000000e-02   5.4000000e-02   5.4000000e-02   5.4000000e-02   5.4000000e-02   5.4000000e-02   5.4000000e-02   5.4000000e-02   5.4000000e-02   5.4000000e-02   5.4000000e-02   5.4000000e-02   5.4000000e-02   5.4000000e-02   5.4000000e-02   5.4000000e-02   5.4000000e-02   5.4000000e-02   5.1713076e-02   4.8782386e-02   4.6109133e-02   4.3865560e-02   4.2171196e-02   4.1077690e-02   4.0562013e-02   4.0529432e-02   4.0826283e-02   4.1261107e-02   4.1631413e-02   4.1752411e-02   4.1483700e-02   4.0750116e-02   3.9553827e-02   3.7976014e-02   3.6167962e-02   3.4332917e-02   3.2701239e-02   3.1502239e-02   3.0936354e-02   3.1151090e-02   3.2223524e-02   3.4151148e-02   3.6851736e-02   4.0248443e-02   4.4025897e-02   4.8064351e-02   5.1954510e-02   5.4000000e-02   5.4000000e-02   5.4000000e-02   5.4000000e-02   5.4000000e-02   5.4000000e-02   5.4000000e-02   5.4000000e-02   5.4000000e-02   5.4000000e-02   5.4000000e-02   5.4000000e-02   5.4000000e-02   5.4000000e-02   5.3332550e-02   5.1981339e-02   5.0659781e-02   4.9505636e-02   4.8579499e-02   4.7950469e-02   4.7681633e-02   4.7812036e-02   4.8339453e-02   4.9208651e-02   5.0309011e-02   5.1483449e-02   5.2548012e-02   5.3318948e-02   5.3736446e-02   5.3569850e-02   5.2859117e-02   5.1666377e-02   5.0125335e-02   4.8421498e-02   4.6764559e-02   4.5357798e-02   4.4369425e-02   4.3909879e-02   4.4087526e-02   4.4701908e-02   4.5762666e-02   4.7056059e-02   4.8401885e-02   4.9579174e-02   5.0381160e-02   5.0642511e-02   5.0263575e-02   4.9228193e-02   4.7611687e-02   4.5576332e-02   4.3353175e-02   4.1211352e-02   3.9418702e-02   3.8199752e-02   3.7698574e-02   3.7953801e-02   3.8930784e-02   4.0359486e-02   4.2058215e-02   4.3752838e-02   4.5189475e-02   4.6175700e-02   4.6608847e-02   4.6486619e-02   4.5899116e-02   4.5005332e-02   4.4000023e-02   4.3078220e-02   4.2404246e-02   4.2090248e-02   4.2186671e-02
5.4000000e-02   5.4000000e-02   5.4000000e-02   5.4000000e-02   5.4000000e-02   5.4000000e-02   5.4000000e-02   5.4000000e-02   5.4000000e-02   5.4000000e-02   5.4000000e-02   5.4000000e-02   5.4000000e-02   5.4000000e-02   5.4000000e-02   5.4000000e-02   5.4000000e-02   5.4000000e-02   5.4000000e-02   5.4000000e-02   5.4000000e-02   5.4000000e-02   5.4000000e-02   5.4000000e-02   5.4000000e-02   5.4000000e-02   5.4000000e-02   5.1991504e-02   4.9848099e-02   4.8116903e-02   4.6986134e-02   4.6564165e-02   4.6856278e-02   4.7872785e-02   4.9235861e-02   5.0766472e-02   5.2188691e-02   5.3256234e-02   5.3794447e-02   5.3728284e-02   5.3200260e-02   5.2170783e-02   5.0920959e-02   4.9689746e-02   4.8712224e-02   4.8181026e-02   4.8224295e-02   4.8893886e-02   5.0166833e-02   5.1957013e-02   5.4000000e-02   5.4000000e-02   5.4000000e-02   5.4000000e-02   5.4000000e-02   5.4000000e-02   5.4000000e-02   5.4000000e-02   5.4000000e-02   5.4000000e-02   5.4000000e-02   5.4000000e-02   5.4000000e-02   5.4000000e-02   5.4000000e-02   5.4000000e-02   5.4000000e-02   5.4000000e-02   5.4000000e-02   5.4000000e-02   5.4000000e-02   5.4000000e-02   5.4000000e-02   5.4000000e-02   5.4000000e-02   5.4000000e-02   5.4000000e-02   5.4000000e-02   5.4000000e-02   5.4000000e-02   5.4000000e-02   5.4000000e-02   5.4000000e-02   5.4000000e-02   5.4000000e-02   5.4000000e-02   5.3045831e-02   5.0196286e-02   4.7600874e-02   4.5423268e-02   4.3775581e-02   4.2704015e-02   4.2182561e-02   4.2116075e-02   4.2352759e-02   4.2704655e-02   4.2973564e-02   4.2978878e-02   4.2583480e-02   4.1714075e-02   4.0373113e-02   3.8640668e-02   3.6666061e-02   3.4650440e-02   3.2822737e-02   3.1412204e-02   3.0621061e-02   3.0600610e-02   3.1433556e-02   3.3124370e-02   3.5598456e-02   3.8776023e-02   4.2362677e-02   4.6235359e-02   4.9988639e-02   5.3489265e-02   5.4000000e-02   5.4000000e-02   5.4000000e-02   5.4000000e-02   5.4000000e-02   5.4000000e-02   5.4000000e-02   5.4000000e-02   5.4000000e-02   5.4000000e-02   5.4000000e-02   5.3496560e-02   5.1915626e-02   5.0418903e-02   4.9085226e-02   4.7807383e-02   4.6708145e-02   4.5835158e-02   4.5243144e-02   4.4982194e-02   4.5082706e-02   4.5540663e-02   4.6307315e-02   4.7286702e-02   4.8342807e-02   4.9315945e-02   5.0045731e-02   5.0499052e-02   5.0443510e-02   4.9924212e-02   4.8992989e-02   4.7764546e-02   4.6399856e-02   4.5082513e-02   4.3992127e-02   4.3278947e-02   4.3043206e-02   4.3391983e-02   4.4128964e-02   4.5279217e-02   4.6634594e-02   4.8033975e-02   4.9268100e-02   5.0138189e-02   5.0482511e-02   5.0200885e-02   4.9273469e-02   4.7770155e-02   4.5847490e-02   4.3731673e-02   4.1688535e-02   3.9984185e-02   3.8842496e-02   3.8407114e-02   3.8715611e-02   3.9725842e-02   4.1176706e-02   4.2873777e-02   4.4538849e-02   4.5915165e-02   4.6809806e-02   4.7122789e-02   4.6857876e-02   4.6114121e-02   4.5061307e-02   4.3905388e-02   4.2851518e-02   4.2071801e-02   4.1683013e-02   4.1736801e-02
5.4000000e-02   5.4000000e-02   5.4000000e-02   5.4000000e-02   5.4000000e-02   5.4000000e-02   5.4000000e-02   5.4000000e-02   5.4000000e-02   5.4000000e-02   5.4000000e-02   5.4000000e-02   5.4000000e-02   5.4000000e-02   5.4000000e-02   5.4000000e-02   5.4000000e-02   5.4000000e-02   5.4000000e-02   5.4000000e-02   5.4000000e-02   5.4000000e-02   5.4000000e-02   5.4000000e-02   5.4000000e-02   5.4000000e-02   5.4000000e-02   5.3440471e-02   5.1291265e-02   4.9520219e-02   4.8318281e-02   4.7798422e-02   4.7971777e-02   4.8853212e-02   5.0074204e-02   5.1460083e-02   5.2739692e-02   5.3670535e-02   5.4000000e-02   5.3897699e-02   5.3260844e-02   5.2138894e-02   5.0810653e-02   4.9515280e-02   4.8488158e-02   4.7921312e-02   4.7941938e-02   4.8600533e-02   4.9872508e-02   5.1670034e-02   5.3860183e-02   5.4000000e-02   5.4000000e-02   5.4000000e-02   5.4000000e-02   5.4000000e-02   5.4000000e-02   5.4000000e-02   5.4000000e-02   5.4000000e-02   5.4000000e-02   5.4000000e-02   5.4000000e-02   5.4000000e-02   5.4000000e-02   5.4000000e-02   5.4000000e-02   5.4000000e-02   5.4000000e-02   5.4000000e-02   5.4000000e-02   5.4000000e-02   5.4000000e-02   5.4000000e-02   5.4000000e-02   5.4000000e-02   5.4000000e-02   5.4000000e-02   5.4000000e-02   5.4000000e-02   5.4000000e-02   5.4000000e-02   5.4000000e-02   5.4000000e-02   5.4000000e-02   5.4000000e-02   5.4000000e-02   5.1506283e-02   4.8987892e-02   4.6874372e-02   4.5270307e-02   4.4216672e-02   4.3685069e-02   4.3580889e-02   4.3755403e-02   4.4025481e-02   4.4198469e-02   4.4098928e-02   4.3593568e-02   4.2610935e-02   4.1153101e-02   3.9297769e-02   3.7190525e-02   3.5028327e-02   3.3036475e-02   3.1442076e-02   3.0447396e-02   3.0206305e-02   3.0806538e-02   3.2259616e-02   3.4499276e-02   3.7444060e-02   4.0822067e-02   4.4508036e-02   4.8103922e-02   5.1474889e-02   5.4000000e-02   5.4000000e-02   5.4000000e-02   5.4000000e-02   5.4000000e-02   5.4000000e-02   5.4000000e-02   5.4000000e-02   5.4000000e-02   5.4000000e-02   5.2276826e-02   5.0559178e-02   4.8911849e-02   4.7365824e-02   4.5996001e-02   4.4701161e-02   4.3590045e-02   4.2699788e-02   4.2073631e-02   4.1751815e-02   4.1759214e-02   4.2092840e-02   4.2712693e-02   4.3538979e-02   4.4457387e-02   4.5332246e-02   4.6025485e-02   4.6526950e-02   4.6603230e-02   4.6300870e-02   4.5658934e-02   4.4770851e-02   4.3771119e-02   4.2815718e-02   4.2059543e-02   4.1634327e-02   4.1630034e-02   4.2152111e-02   4.3011131e-02   4.4248191e-02   4.5661896e-02   4.7112878e-02   4.8405998e-02   4.9352833e-02   4.9797287e-02   4.9640018e-02   4.8857907e-02   4.7514632e-02   4.5759004e-02   4.3809286e-02   4.1924194e-02   4.0364109e-02   3.9348679e-02   3.9018580e-02   3.9409235e-02   4.0471732e-02   4.1955585e-02   4.3657118e-02   4.5297750e-02   4.6621339e-02   4.7437105e-02   4.7649063e-02   4.7266838e-02   4.6396858e-02   4.5217073e-02   4.3941519e-02   4.2782421e-02   4.1917178e-02   4.1465612e-02   4.1480045e-02
5.4000000e-02   5.4000000e-02   5.4000000e-02   5.4000000e-02   5.4000000e-02   5.4000000e-02   5.4000000e-02   5.4000000e-02   5.4000000e-02   5.4000000e-02   5.4000000e-02   5.4000000e-02   5.4000000e-02   5.4000000e-02   5.4000000e-02   5.4000000e-02   5.4000000e-02   5.4000000e-02   5.4000000e-02   5.4000000e-02   5.4000000e-02   5.4000000e-02   5.4000000e-02   5.4000000e-02   5.4000000e-02   5.4000000e-02   5.4000000e-02   5.4000000e-02   5.2540971e-02   5.0767107e-02   4.9526546e-02   4.8934153e-02   4.9005744e-02   4.9759970e-02   5.0841935e-02   5.2083765e-02   5.3222917e-02   5.4000000e-02   5.4000000e-02   5.4000000e-02   5.3327725e-02   5.2148359e-02   5.0778053e-02   4.9451986e-02   4.8401889e-02   4.7815933e-02   4.7818312e-02   4.8457463e-02   4.9707765e-02   5.1481347e-02   5.3646095e-02   5.4000000e-02   5.4000000e-02   5.4000000e-02   5.4000000e-02   5.4000000e-02   5.4000000e-02   5.4000000e-02   5.4000000e-02   5.4000000e-02   5.4000000e-02   5.4000000e-02   5.4000000e-02   5.4000000e-02   5.4000000e-02   5.4000000e-02   5.4000000e-02   5.4000000e-02   5.4000000e-02   5.4000000e-02   5.4000000e-02   5.4000000e-02   5.4000000e-02   5.4000000e-02   5.4000000e-02   5.4000000e-02   5.4000000e-02   5.4000000e-02   5.4000000e-02   5.4000000e-02   5.4000000e-02   5.4000000e-02   5.4000000e-02   5.4000000e-02   5.4000000e-02   5.4000000e-02   5.4000000e-02   5.2609733e-02   5.0157320e-02   4.8096869e-02   4.6525933e-02   4.5480976e-02   4.4932158e-02   4.4786531e-02   4.4899659e-02   4.5094420e-02   4.5184698e-02   4.5000877e-02   4.4413674e-02   4.3353093e-02   4.1819854e-02   3.9887772e-02   3.7696737e-02   3.5437272e-02   3.3328714e-02   3.1593825e-02   3.0433028e-02   3.0001355e-02   3.0390748e-02   3.1619581e-02   3.3630330e-02   3.6341238e-02   3.9503602e-02   4.2991148e-02   4.6416472e-02   4.9643781e-02   5.2469007e-02   5.4000000e-02   5.4000000e-02   5.4000000e-02   5.4000000e-02   5.4000000e-02   5.4000000e-02   5.4000000e-02   5.3143991e-02   5.1353543e-02   4.9508450e-02   4.7685464e-02   4.5937665e-02   4.4299195e-02   4.2840912e-02   4.1469590e-02   4.0281247e-02   3.9305104e-02   3.8576023e-02   3.8127695e-02   3.7982649e-02   3.8141638e-02   3.8575365e-02   3.9221209e-02   3.9986553e-02   4.0758801e-02   4.1420518e-02   4.1979987e-02   4.2203829e-02   4.2136227e-02   4.1801434e-02   4.1269986e-02   4.0648755e-02   4.0065381e-02   3.9649675e-02   3.9514758e-02   3.9740468e-02   4.0430203e-02   4.1403887e-02   4.2718775e-02   4.4181012e-02   4.5675141e-02   4.7022225e-02   4.8046391e-02   4.8599202e-02   4.8583656e-02   4.7973988e-02   4.6827173e-02   4.5282560e-02   4.3547641e-02   4.1870412e-02   4.0501696e-02   3.9653502e-02   3.9461159e-02   3.9957068e-02   4.1086712e-02   4.2611785e-02   4.4323403e-02   4.5946518e-02   4.7229188e-02   4.7985323e-02   4.8123975e-02   4.7659979e-02   4.6704929e-02   4.5441640e-02   4.4088417e-02   4.2860888e-02   4.1938790e-02   4.1443120e-02   4.1426253e-02
5.4000000e-02   5.4000000e-02   5.4000000e-02   5.4000000e-02   5.4000000e-02   5.4000000e-02   5.4000000e-02   5.4000000e-02   5.4000000e-02   5.4000000e-02   5.4000000e-02   5.4000000e-02   5.4000000e-02   5.4000000e-02   5.4000000e-02   5.4000000e-02   5.4000000e-02   5.4000000e-02   5.4000000e-02   5.4000000e-02   5.4000000e-02   5.4000000e-02   5.4000000e-02   5.4000000e-02   5.4000000e-02   5.4000000e-02   5.4000000e-02   5.4000000e-02   5.3568062e-02   5.1828047e-02   5.0581813e-02   4.9943399e-02   4.9932047e-02   5.0569433e-02   5.1518238e-02   5.2619732e-02   5.3623644e-02   5.4000000e-02   5.4000000e-02   5.4000000e-02   5.3396548e-02   5.2196662e-02   5.0822232e-02   4.9500347e-02   4.8455196e-02   4.7867931e-02   4.7857745e-02   4.8470347e-02   4.9679695e-02   5.1399520e-02   5.3500867e-02   5.4000000e-02   5.4000000e-02   5.4000000e-02   5.4000000e-02   5.4000000e-02   5.4000000e-02   5.4000000e-02   5.4000000e-02   5.4000000e-02   5.4000000e-02   5.4000000e-02   5.4000000e-02   5.4000000e-02   5.4000000e-02   5.4000000e-02   5.4000000e-02   5.4000000e-02   5.4000000e-02   5.4000000e-02   5.4000000e-02   5.4000000e-02   5.4000000e-02   5.4000000e-02   5.4000000e-02   5.4000000e-02   5.4000000e-02   5.4000000e-02   5.4000000e-02   5.4000000e-02   5.4000000e-02   5.4000000e-02   5.4000000e-02   5.4000000e-02   5.4000000e-02   5.4000000e-02   5.4000000e-02   5.3382352e-02   5.0977597e-02   4.8952877e-02   4.7399745e-02   4.6351319e-02   4.5777564e-02   4.5588460e-02   4.5645054e-02   4.5777245e-02   4.5806176e-02   4.5568362e-02   4.4938356e-02   4.3846910e-02   4.2292159e-02   4.0342312e-02   3.8129475e-02   3.5835428e-02   3.3671174e-02   3.1852887e-02   3.0577195e-02   2.9998772e-02   3.0212771e-02   3.1243997e-02   3.3043803e-02   3.5531527e-02   3.8481649e-02   4.1768142e-02   4.5017119e-02   4.8092531e-02   5.0791381e-02   5.2951949e-02   5.4000000e-02   5.4000000e-02   5.4000000e-02   5.4000000e-02   5.3987097e-02   5.2541061e-02   5.0808339e-02   4.8908437e-02   4.6944336e-02   4.4996417e-02   4.3121493e-02   4.1356415e-02   3.9768014e-02   3.8272554e-02   3.6954757e-02   3.5838328e-02   3.4952553e-02   3.4327485e-02   3.3985961e-02   3.3934527e-02   3.4155771e-02   3.4604422e-02   3.5208755e-02   3.5877631e-02   3.6512133e-02   3.7134128e-02   3.7511804e-02   3.7683630e-02   3.7657853e-02   3.7481550e-02   3.7233933e-02   3.7014632e-02   3.6928862e-02   3.7071640e-02   3.7513088e-02   3.8354153e-02   3.9426214e-02   4.0802336e-02   4.2296570e-02   4.3818908e-02   4.5208238e-02   4.6303109e-02   4.6964603e-02   4.7099548e-02   4.6680287e-02   4.5756804e-02   4.4457519e-02   4.2976569e-02   4.1547860e-02   4.0409021e-02   3.9761169e-02   3.9732041e-02   4.0350259e-02   4.1557085e-02   4.3127781e-02   4.4852564e-02   4.6463873e-02   4.7717544e-02   4.8434653e-02   4.8530167e-02   4.8023236e-02   4.7028127e-02   4.5728883e-02   4.4343938e-02   4.3088373e-02   4.2141084e-02   4.1622243e-02   4.1583602e-02
5.4000000e-02   5.4000000e-02   5.4000000e-02   5.4000000e-02   5.4000000e-02   5.4000000e-02   5.4000000e-02   5.4000000e-02   5.4000000e-02   5.4000000e-02   5.4000000e-02   5.4000000e-02   5.4000000e-02   5.4000000e-02   5.4000000e-02   5.4000000e-02   5.4000000e-02   5.4000000e-02   5.4000000e-02   5.4000000e-02   5.4000000e-02   5.4000000e-02   5.4000000e-02   5.4000000e-02   5.4000000e-02   5.4000000e-02   5.4000000e-02   5.4000000e-02   5.4000000e-02   5.2675295e-02   5.1453108e-02   5.0793171e-02   5.0716982e-02   5.1248570e-02   5.2071673e-02   5.3038842e-02   5.3915368e-02   5.4000000e-02   5.4000000e-02   5.4000000e-02   5.3448981e-02   5.2266348e-02   5.0926339e-02   4.9644092e-02   4.8632583e-02   4.8062982e-02   4.8047618e-02   4.8628855e-02   4.9780798e-02   5.1420311e-02   5.3423765e-02   5.4000000e-02   5.4000000e-02   5.4000000e-02   5.4000000e-02   5.4000000e-02   5.4000000e-02   5.4000000e-02   5.4000000e-02   5.4000000e-02   5.4000000e-02   5.4000000e-02   5.4000000e-02   5.4000000e-02   5.4000000e-02   5.4000000e-02   5.4000000e-02   5.4000000e-02   5.4000000e-02   5.4000000e-02   5.4000000e-02   5.4000000e-02   5.4000000e-02   5.4000000e-02   5.4000000e-02   5.4000000e-02   5.4000000e-02   5.4000000e-02   5.4000000e-02   5.4000000e-02   5.4000000e-02   5.4000000e-02   5.4000000e-02   5.4000000e-02   5.4000000e-02   5.4000000e-02   5.4000000e-02   5.3695476e-02   5.1317567e-02   4.9309361e-02   4.7757852e-02   4.6694288e-02   4.6089872e-02   4.5858831e-02   4.5868802e-02   4.5957521e-02   4.5953826e-02   4.5700370e-02   4.5075075e-02   4.4008496e-02   4.2494784e-02   4.0594758e-02   3.8430668e-02   3.6173304e-02   3.4023072e-02   3.2187408e-02   3.0857254e-02   3.0185400e-02   3.0269145e-02   3.1139150e-02   3.2755577e-02   3.5040218e-02   3.7790159e-02   4.0880893e-02   4.3954491e-02   4.6875398e-02   4.9443089e-02   5.1495278e-02   5.2947708e-02   5.3700280e-02   5.3823441e-02   5.3250052e-02   5.2141528e-02   5.0610406e-02   4.8779455e-02   4.6767720e-02   4.4679541e-02   4.2597877e-02   4.0582473e-02   3.8672518e-02   3.6930946e-02   3.5284433e-02   3.3807748e-02   3.2520967e-02   3.1449937e-02   3.0623141e-02   3.0065393e-02   2.9790007e-02   2.9791540e-02   3.0041214e-02   3.0486517e-02   3.1055551e-02   3.1665543e-02   3.2347199e-02   3.2872396e-02   3.3271413e-02   3.3536472e-02   3.3691941e-02   3.3790663e-02   3.3905792e-02   3.4119415e-02   3.4509600e-02   3.5137493e-02   3.6101226e-02   3.7245317e-02   3.8657806e-02   4.0160568e-02   4.1689839e-02   4.3103365e-02   4.4255518e-02   4.5018428e-02   4.5304094e-02   4.5083728e-02   4.4400190e-02   4.3369759e-02   4.2170972e-02   4.1020627e-02   4.0139869e-02   3.9715952e-02   3.9866992e-02   4.0617200e-02   4.1905098e-02   4.3520717e-02   4.5257669e-02   4.6859691e-02   4.8093809e-02   4.8790584e-02   4.8871635e-02   4.8359424e-02   4.7368315e-02   4.6079884e-02   4.4708532e-02   4.3464822e-02   4.2523624e-02   4.2002272e-02   4.1951217e-02
5.4000000e-02   5.4000000e-02   5.4000000e-02   5.4000000e-02   5.4000000e-02   5.4000000e-02   5.4000000e-02   5.4000000e-02   5.4000000e-02   5.4000000e-02   5.4000000e-02   5.4000000e-02   5.4000000e-02   5.4000000e-02   5.4000000e-02   5.4000000e-02   5.4000000e-02   5.4000000e-02   5.4000000e-02   5.4000000e-02   5.4000000e-02   5.4000000e-02   5.4000000e-02   5.4000000e-02   5.4000000e-02   5.4000000e-02   5.4000000e-02   5.4000000e-02   5.4000000e-02   5.3259647e-02   5.2082253e-02   5.1418255e-02   5.1290595e-02   5.1725237e-02   5.2429981e-02   5.3270508e-02   5.4000000e-02   5.4000000e-02   5.4000000e-02   5.4000000e-02   5.3431244e-02   5.2306296e-02   5.1041675e-02   4.9836993e-02   4.8890598e-02   4.8360983e-02   4.8351903e-02   4.8901797e-02   4.9985399e-02   5.1524047e-02   5.3401336e-02   5.4000000e-02   5.4000000e-02   5.4000000e-02   5.4000000e-02   5.4000000e-02   5.4000000e-02   5.4000000e-02   5.4000000e-02   5.4000000e-02   5.4000000e-02   5.4000000e-02   5.4000000e-02   5.4000000e-02   5.4000000e-02   5.4000000e-02   5.4000000e-02   5.4000000e-02   5.4000000e-02   5.4000000e-02   5.4000000e-02   5.4000000e-02   5.4000000e-02   5.4000000e-02   5.4000000e-02   5.4000000e-02   5.4000000e-02   5.4000000e-02   5.4000000e-02   5.4000000e-02   5.4000000e-02   5.4000000e-02   5.4000000e-02   5.4000000e-02   5.4000000e-02   5.4000000e-02   5.4000000e-02   5.3436292e-02   5.1067849e-02   4.9060515e-02   4.7498358e-02   4.6412356e-02   4.5776427e-02   4.5510290e-02   4.5489125e-02   4.5559085e-02   4.5556891e-02   4.5331097e-02   4.4762332e-02   4.3779906e-02   4.2372585e-02   4.0592118e-02   3.8549017e-02   3.6401099e-02   3.4336190e-02   3.2551103e-02   3.1229420e-02   3.0520666e-02   3.0523261e-02   3.1273105e-02   3.2738960e-02   3.4846378e-02   3.7414053e-02   4.0320261e-02   4.3224955e-02   4.5993872e-02   4.8430273e-02   5.0372557e-02   5.1729004e-02   5.2403557e-02   5.2452703e-02   5.1813162e-02   5.0634091e-02   4.9023360e-02   4.7100741e-02   4.4984156e-02   4.2778549e-02   4.0568736e-02   3.8416835e-02   3.6364110e-02   3.4469837e-02   3.2671443e-02   3.1034855e-02   2.9577729e-02   2.8323709e-02   2.7300689e-02   2.6535915e-02   2.6049170e-02   2.5845836e-02   2.5911689e-02   2.6210936e-02   2.6688226e-02   2.7274472e-02   2.8004964e-02   2.8657931e-02   2.9254145e-02   2.9771066e-02   3.0212494e-02   3.0607546e-02   3.1005623e-02   3.1468089e-02   3.2057852e-02   3.2828114e-02   3.3873876e-02   3.5053992e-02   3.6470151e-02   3.7951497e-02   3.9460465e-02   4.0873995e-02   4.2063065e-02   4.2911920e-02   4.3338776e-02   4.3314405e-02   4.2874548e-02   4.2122465e-02   4.1219328e-02   4.0362398e-02   3.9753641e-02   3.9564041e-02   3.9900494e-02   4.0782427e-02   4.2147203e-02   4.3800662e-02   4.5543879e-02   4.7135354e-02   4.8356344e-02   4.9048882e-02   4.9141741e-02   4.8659567e-02   4.7714229e-02   4.6481232e-02   4.5166911e-02   4.3973495e-02   4.3068766e-02   4.2565284e-02   4.2511526e-02
5.4000000e-02   5.4000000e-02   5.4000000e-02   5.4000000e-02   5.4000000e-02   5.4000000e-02   5.4000000e-02   5.4000000e-02   5.4000000e-02   5.4000000e-02   5.4000000e-02   5.4000000e-02   5.4000000e-02   5.4000000e-02   5.4000000e-02   5.4000000e-02   5.4000000e-02   5.4000000e-02   5.4000000e-02   5.4000000e-02   5.4000000e-02   5.4000000e-02   5.4000000e-02   5.4000000e-02   5.4000000e-02   5.4000000e-02   5.4000000e-02   5.4000000e-02   5.4000000e-02   5.3501615e-02   5.2374779e-02   5.1711893e-02   5.1537155e-02   5.1878516e-02   5.2470392e-02   5.3193123e-02   5.3850658e-02   5.4000000e-02   5.4000000e-02   5.3940943e-02   5.3248078e-02   5.2226870e-02   5.1084044e-02   5.0000368e-02   4.9156378e-02   4.8695467e-02   4.8711257e-02   4.9237700e-02   5.0250520e-02   5.1676628e-02   5.3408423e-02   5.4000000e-02   5.4000000e-02   5.4000000e-02   5.4000000e-02   5.4000000e-02   5.4000000e-02   5.4000000e-02   5.4000000e-02   5.4000000e-02   5.4000000e-02   5.4000000e-02   5.4000000e-02   5.4000000e-02   5.4000000e-02   5.4000000e-02   5.4000000e-02   5.4000000e-02   5.4000000e-02   5.4000000e-02   5.4000000e-02   5.4000000e-02   5.4000000e-02   5.4000000e-02   5.4000000e-02   5.4000000e-02   5.4000000e-02   5.4000000e-02   5.4000000e-02   5.4000000e-02   5.4000000e-02   5.4000000e-02   5.4000000e-02   5.4000000e-02   5.4000000e-02   5.4000000e-02   5.4000000e-02   5.2526857e-02   5.0160005e-02   4.8147005e-02   4.6570589e-02   4.5462983e-02   4.4802149e-02   4.4514353e-02   4.4483025e-02   4.4563080e-02   4.4599080e-02   4.4445079e-02   4.3983696e-02   4.3141999e-02   4.1902155e-02   4.0305463e-02   3.8449217e-02   3.6476735e-02   3.4561749e-02   3.2889024e-02   3.1633484e-02   3.0940294e-02   3.0908147e-02   3.1577616e-02   3.2925813e-02   3.4883266e-02   3.7289018e-02   4.0025344e-02   4.2771437e-02   4.5395148e-02   4.7704678e-02   4.9540274e-02   5.0804487e-02   5.1405234e-02   5.1386227e-02   5.0688726e-02   4.9449887e-02   4.7773007e-02   4.5774732e-02   4.3571563e-02   4.1268651e-02   3.8952256e-02   3.6686555e-02   3.4514744e-02   3.2492753e-02   3.0568559e-02   2.8800073e-02   2.7203032e-02   2.5799181e-02   2.4615712e-02   2.3681552e-02   2.3021441e-02   2.2649316e-02   2.2562642e-02   2.2739198e-02   2.3137185e-02   2.3698837e-02   2.4460485e-02   2.5209775e-02   2.5957859e-02   2.6669898e-02   2.7332485e-02   2.7954820e-02   2.8566266e-02   2.9210638e-02   2.9937960e-02   3.0794726e-02   3.1872511e-02   3.3045154e-02   3.4426176e-02   3.5850982e-02   3.7307262e-02   3.8690718e-02   3.9889007e-02   4.0798973e-02   4.1345728e-02   4.1500164e-02   4.1291067e-02   4.0808248e-02   4.0194446e-02   3.9625818e-02   3.9283406e-02   3.9320407e-02   3.9831645e-02   4.0831894e-02   4.2259097e-02   4.3935901e-02   4.5674512e-02   4.7251121e-02   4.8463664e-02   4.9167086e-02   4.9297384e-02   4.8880002e-02   4.8021663e-02   4.6888278e-02   4.5674271e-02   4.4569933e-02   4.3733087e-02   4.3269685e-02   4.3225563e-02
5.4000000e-02   5.4000000e-02   5.4000000e-02   5.4000000e-02   5.4000000e-02   5.4000000e-02   5.4000000e-02   5.4000000e-02   5.4000000e-02   5.4000000e-02   5.4000000e-02   5.4000000e-02   5.4000000e-02   5.4000000e-02   5.4000000e-02   5.4000000e-02   5.4000000e-02   5.4000000e-02   5.4000000e-02   5.4000000e-02   5.4000000e-02   5.4000000e-02   5.4000000e-02   5.4000000e-02   5.4000000e-02   5.4000000e-02   5.4000000e-02   5.4000000e-02   5.4000000e-02   5.3301494e-02   5.2211956e-02   5.1539504e-02   5.1310234e-02   5.1554718e-02   5.2036138e-02   5.2650684e-02   5.3223923e-02   5.3597243e-02   5.3657022e-02   5.3354626e-02   5.2776167e-02   5.1912396e-02   5.0945276e-02   5.0033657e-02   4.9337280e-02   4.8982281e-02   4.9050743e-02   4.9571571e-02   5.0521705e-02   5.1834464e-02   5.3412279e-02   5.4000000e-02   5.4000000e-02   5.4000000e-02   5.4000000e-02   5.4000000e-02   5.4000000e-02   5.4000000e-02   5.4000000e-02   5.4000000e-02   5.4000000e-02   5.4000000e-02   5.4000000e-02   5.4000000e-02   5.4000000e-02   5.4000000e-02   5.4000000e-02   5.4000000e-02   5.4000000e-02   5.4000000e-02   5.4000000e-02   5.4000000e-02   5.4000000e-02   5.4000000e-02   5.4000000e-02   5.4000000e-02   5.4000000e-02   5.4000000e-02   5.4000000e-02   5.4000000e-02   5.4000000e-02   5.4000000e-02   5.4000000e-02   5.4000000e-02   5.4000000e-02   5.4000000e-02   5.3521942e-02   5.0938282e-02   4.8579749e-02   4.6568244e-02   4.4986481e-02   4.3869155e-02   4.3199293e-02   4.2910439e-02   4.2894687e-02   4.3015790e-02   4.3125935e-02   4.3084212e-02   4.2774580e-02   4.2121085e-02   4.1098442e-02   3.9736619e-02   3.8118796e-02   3.6372907e-02   3.4657730e-02   3.3145151e-02   3.2000673e-02   3.1364415e-02   3.1334774e-02   3.1956588e-02   3.3215084e-02   3.5046886e-02   3.7309991e-02   3.9891826e-02   4.2491574e-02   4.4980014e-02   4.7171231e-02   4.8908298e-02   5.0089645e-02   5.0627036e-02   5.0552684e-02   4.9812872e-02   4.8533281e-02   4.6812883e-02   4.4765281e-02   4.2505495e-02   4.0138739e-02   3.7752542e-02   3.5412998e-02   3.3165179e-02   3.1062030e-02   2.9061430e-02   2.7213837e-02   2.5532955e-02   2.4038166e-02   2.2754944e-02   2.1712187e-02   2.0937153e-02   2.0449241e-02   2.0254116e-02   2.0339606e-02   2.0674385e-02   2.1209840e-02   2.1980653e-02   2.2787084e-02   2.3631621e-02   2.4470484e-02   2.5277305e-02   2.6045952e-02   2.6790126e-02   2.7539731e-02   2.8334461e-02   2.9215393e-02   3.0270358e-02   3.1388230e-02   3.2692113e-02   3.4022246e-02   3.5389754e-02   3.6707886e-02   3.7880310e-02   3.8816338e-02   3.9448228e-02   3.9747424e-02   3.9736125e-02   3.9490826e-02   3.9135652e-02   3.8825228e-02   3.8719186e-02   3.8952654e-02   3.9608571e-02   4.0697917e-02   4.2161263e-02   4.3839091e-02   4.5557904e-02   4.7113839e-02   4.8323164e-02   4.9054393e-02   4.9250189e-02   4.8934997e-02   4.8207558e-02   4.7220688e-02   4.6153221e-02   4.5180133e-02   4.4446603e-02   4.4050262e-02   4.4033638e-02
5.4000000e-02   5.4000000e-02   5.4000000e-02   5.4000000e-02   5.4000000e-02   5.4000000e-02   5.4000000e-02   5.4000000e-02   5.4000000e-02   5.4000000e-02   5.4000000e-02   5.4000000e-02   5.4000000e-02   5.4000000e-02   5.4000000e-02   5.4000000e-02   5.4000000e-02   5.4000000e-02   5.4000000e-02   5.4000000e-02   5.4000000e-02   5.4000000e-02   5.4000000e-02   5.4000000e-02   5.4000000e-02   5.4000000e-02   5.4000000e-02   5.4000000e-02   5.3937962e-02   5.2565801e-02   5.1481032e-02   5.0772232e-02   5.0468868e-02   5.0605355e-02   5.0975382e-02   5.1491804e-02   5.2002274e-02   5.2366378e-02   5.2481459e-02   5.2300550e-02   5.1894023e-02   5.1248265e-02   5.0517510e-02   4.9835916e-02   4.9339673e-02   4.9135829e-02   4.9293686e-02   4.9836566e-02   5.0742709e-02   5.1952406e-02   5.3378988e-02   5.4000000e-02   5.4000000e-02   5.4000000e-02   5.4000000e-02   5.4000000e-02   5.4000000e-02   5.4000000e-02   5.4000000e-02   5.4000000e-02   5.4000000e-02   5.4000000e-02   5.4000000e-02   5.4000000e-02   5.4000000e-02   5.4000000e-02   5.4000000e-02   5.4000000e-02   5.4000000e-02   5.4000000e-02   5.4000000e-02   5.4000000e-02   5.4000000e-02   5.4000000e-02   5.4000000e-02   5.4000000e-02   5.4000000e-02   5.4000000e-02   5.4000000e-02   5.4000000e-02   5.4000000e-02   5.4000000e-02   5.4000000e-02   5.4000000e-02   5.4000000e-02   5.3859605e-02   5.1242237e-02   4.8697805e-02   4.6372025e-02   4.4385606e-02   4.2822100e-02   4.1719443e-02   4.1066294e-02   4.0803803e-02   4.0832786e-02   4.1025666e-02   4.1241905e-02   4.1345188e-02   4.1220345e-02   4.0787977e-02   4.0015007e-02   3.8919818e-02   3.7571311e-02   3.6081922e-02   3.4595375e-02   3.3270564e-02   3.2263415e-02   3.1708809e-02   3.1704637e-02   3.2299796e-02   3.3487473e-02   3.5211383e-02   3.7347068e-02   3.9788153e-02   4.2253958e-02   4.4618964e-02   4.6703821e-02   4.8355166e-02   4.9468687e-02   4.9959713e-02   4.9850187e-02   4.9091594e-02   4.7798754e-02   4.6066571e-02   4.4005732e-02   4.1729805e-02   3.9344023e-02   3.6937124e-02   3.4577062e-02   3.2310759e-02   3.0188540e-02   2.8177232e-02   2.6320206e-02   2.4628618e-02   2.3118517e-02   2.1812090e-02   2.0735946e-02   1.9916916e-02   1.9376388e-02   1.9124504e-02   1.9155576e-02   1.9445801e-02   1.9953835e-02   2.0710876e-02   2.1532812e-02   2.2415207e-02   2.3309167e-02   2.4180008e-02   2.5011176e-02   2.5805295e-02   2.6582110e-02   2.7373548e-02   2.8216476e-02   2.9194584e-02   3.0211242e-02   3.1396522e-02   3.2593771e-02   3.3834926e-02   3.5048879e-02   3.6153947e-02   3.7071176e-02   3.7739821e-02   3.8132193e-02   3.8264516e-02   3.8200739e-02   3.8047201e-02   3.7937868e-02   3.8011918e-02   3.8387554e-02   3.9137250e-02   4.0269925e-02   4.1731190e-02   4.3380482e-02   4.5061205e-02   4.6590916e-02   4.7804941e-02   4.8585112e-02   4.8879435e-02   4.8709039e-02   4.8161589e-02   4.7373299e-02   4.6503886e-02   4.5709852e-02   4.5121269e-02   4.4825848e-02   4.4862136e-02
